ply
format ascii 1.0
comment PCL generated
element vertex 1597
property float x
property float y
property float z
element camera 0
property float view_px
property float view_py
property float view_pz
property float x_axisx
property float x_axisy
property float x_axisz
property float y_axisx
property float y_axisy
property float y_axisz
property float z_axisx
property float z_axisy
property float z_axisz
property float focal
property float scalex
property float scaley
property float centerx
property float centery
property int viewportx
property int viewporty
property float k1
property float k2
end_header
81.256058 4.4803438 88.247284
82.015068 5.1002455 85.461182
65.275085 19.94265 99.390373
65.43055 19.945518 98.945587
66.665619 19.868244 96.236198
83.531738 6.5227938 79.146843
83.634911 6.637517 78.774216
69.15564 19.471676 90.959366
85.220291 8.257226 72.208054
85.848366 8.9834509 69.338409
75.203842 18.225189 78.621117
75.675858 18.108089 77.531738
75.861008 18.071995 77.147675
75.933189 18.054352 76.959473
76.724838 17.842396 75.548485
86.520302 9.8212423 66.179436
79.363609 16.985367 70.895607
80.099678 16.714962 69.630798
81.48819 16.237953 66.917267
87.652328 11.263701 60.919075
81.902161 16.092297 66.145569
82.368454 15.916224 65.463188
83.135803 15.591058 64.193268
83.124161 15.596637 64.05851
83.54541 15.414958 63.58506
83.834579 15.272061 63.066589
86.633835 13.994302 58.494637
87.230087 13.732686 57.764755
87.703255 13.517087 56.775517
78.381584 2.8312235 98.309616
77.572144 3.9061041 98.377518
76.776802 4.9656019 98.45417
75.946167 6.0231466 98.532822
79.898674 3.299737 93.870605
80.198265 3.5594378 92.587997
72.817856 10.142886 98.832977
72.657318 10.390786 98.859436
70.226974 13.478854 99.079384
81.379852 4.5610552 88.143906
68.76149 15.471826 99.231804
82.331039 5.3569117 84.399673
65.563278 19.532581 99.524323
65.478027 19.934166 99.222778
65.794418 19.903767 98.571449
66.397728 19.883831 96.937622
83.254532 6.2090044 80.693092
67.515755 19.731651 94.703491
68.261078 19.609409 92.918472
68.351807 19.592823 92.870865
83.952606 6.9342966 77.882904
70.704514 19.236759 87.948677
70.758041 19.227573 87.885658
72.246552 18.970684 84.497513
85.405243 8.4388361 71.565216
85.502434 8.5361261 71.201477
73.546661 18.650944 82.10276
75.622917 18.125496 78.144341
75.661469 18.118938 77.813644
86.193169 9.3995047 67.975204
77.496429 17.631828 74.361549
86.760277 10.098889 65.379044
86.829109 10.198258 65.07045
78.853676 17.153511 71.9356
87.034637 10.453652 64.165947
79.688431 16.868484 70.646713
80.272934 16.652721 69.484627
80.379456 16.614571 69.377708
80.721779 16.493568 68.816772
87.412064 10.936952 62.326958
81.730492 16.150745 66.735085
81.837906 16.100864 66.731911
83.054413 15.638793 64.550575
88.086365 11.760533 59.370979
84.117668 15.142518 62.78997
85.173096 14.660605 61.146378
88.295448 12.237939 58.056602
88.308182 12.588532 57.337116
78.665634 2.5885668 98.2761
79.186523 2.7965174 96.944092
76.951019 4.9040689 98.442245
75.211548 7.1176805 98.606941
79.964539 3.3391638 94.035667
80.298836 3.6039495 92.835625
80.610741 3.8775873 91.468567
72.621155 10.569253 98.856621
71.775642 11.58883 98.945076
80.806252 4.0622206 90.588867
80.910889 4.1210108 90.466423
68.574615 15.768474 99.241158
81.801559 4.893466 86.886986
68.438507 16.005161 99.265869
66.795692 18.160675 99.423264
82.558823 5.5400229 83.848282
65.648636 19.905952 99.195
83.128639 6.0657701 81.579353
67.434647 19.739105 95.170654
68.459892 19.578518 93.083313
68.488846 19.568069 92.780334
70.646667 19.231281 88.31633
71.947968 19.039639 85.552841
73.023849 18.777462 83.565201
85.517387 8.510047 71.720612
73.457245 18.670399 82.528191
73.786896 18.586258 81.957558
85.804192 8.8714895 70.242653
86.213356 9.3735151 68.521515
76.353806 17.93737 77.005112
76.528419 17.887363 76.722527
76.541901 17.89143 76.512611
78.218445 17.38522 73.452515
80.361298 16.630165 69.607605
87.478088 10.960633 62.595791
83.391129 15.473508 64.338058
88.071358 11.701701 59.936874
84.045959 15.174382 63.387581
88.250114 12.028329 58.802944
88.250534 12.043088 58.691765
85.993912 14.285279 60.167316
86.127274 14.224483 59.906109
88.293686 12.799312 57.281616
87.449539 13.620534 57.965149
80.671936 3.9060602 91.597504
80.839806 4.0509634 90.899002
71.795036 11.760825 98.93885
70.068932 14.018958 99.104034
81.573921 4.6716108 88.049843
69.561646 14.810231 99.156219
81.660973 4.7619753 87.631577
66.037537 19.320248 99.50061
83.200539 6.0977774 81.69635
66.610901 19.856274 97.124809
66.693451 19.838646 97.05014
67.720917 19.692074 94.714005
83.626404 6.5388441 79.8955
68.446495 19.568466 93.225769
84.128151 7.0788832 77.662025
84.422668 7.3719435 76.584236
70.175415 19.297436 89.717224
84.69648 7.6638632 75.309547
85.630775 8.6180429 71.547302
85.760658 8.7894907 70.781296
74.415901 18.423988 81.005753
74.63237 18.357613 80.692673
75.375259 18.181503 79.153275
76.421577 17.906204 77.167786
86.531738 9.7420626 67.290771
77.426361 17.650845 75.268242
79.351418 16.982727 71.872162
87.154289 10.543241 64.374367
80.449699 16.584904 69.928139
81.064438 16.38065 68.58886
84.211266 15.109277 63.473442
85.524658 14.509753 61.334259
85.583076 14.482949 61.31768
79.208916 2.7892637 97.262146
79.416931 2.9073839 96.736542
79.681992 3.1061773 95.65844
80.266342 3.5513544 93.449203
74.017578 9.013278 98.730728
81.20932 4.350749 89.847214
71.380539 12.563453 98.985947
81.391403 4.5017366 89.187012
70.771706 13.388396 99.055038
81.536247 4.6375933 88.413925
81.641785 4.7040071 88.179756
69.081131 15.501332 99.214005
82.039383 5.0421419 86.788971
68.214439 16.729771 99.299652
67.735992 17.299049 99.343811
67.587868 17.450935 99.346771
67.311905 17.83123 99.383743
82.39093 5.3418989 85.200768
67.133034 18.086151 99.391449
66.461998 19.852779 98.019958
83.612968 6.5216761 80.171791
68.389908 19.578411 93.863083
68.975418 19.480457 92.44593
70.292877 19.272331 89.863998
71.512192 19.094036 87.237473
85.297401 8.260932 73.123016
85.306473 8.2574301 73.091354
85.972031 9.0001574 70.330971
78.047897 17.440636 74.402328
79.085594 17.063354 72.680206
80.084534 16.72385 70.633598
80.390076 16.604572 70.219391
80.671844 16.505363 69.704163
80.797142 16.472626 69.371788
83.551521 15.399127 64.733231
85.416733 14.558724 61.671852
85.629723 14.461143 61.529648
88.358398 12.613458 58.181534
87.183502 13.740668 59.12698
87.569824 13.564256 58.532486
87.682182 13.513288 58.167549
87.819695 13.459565 58.033791
78.1931 3.7398634 98.336548
80.098267 3.3672152 94.671753
80.354744 3.598237 93.452988
80.512802 3.7440386 92.831406
71.587173 12.393659 98.979065
69.722885 14.810151 99.14682
81.843491 4.8614283 87.603493
67.923203 17.297836 99.322845
66.156525 19.55899 99.500488
66.090347 19.859421 99.105743
83.135284 5.9772329 82.714417
66.512589 19.836605 98.042755
66.663887 19.823204 97.897713
66.973969 19.792831 97.169266
83.464172 6.3368139 81.231789
67.468765 19.707447 96.03289
67.624138 19.683182 95.71228
67.882774 19.645908 94.999275
68.067268 19.626308 94.671448
84.006416 6.9071836 78.816071
71.353188 19.102413 87.925148
71.360672 19.104424 87.726456
71.691185 19.057407 87.073715
72.369347 18.922321 85.653938
72.651772 18.851154 85.089828
85.627586 8.5496588 72.298828
74.885956 18.298771 80.613892
75.612976 18.114113 79.281174
86.553101 9.7164698 67.845169
77.341599 17.675766 76.056793
77.860077 17.493279 75.143112
79.570518 16.901909 71.976372
81.428581 16.237026 68.578362
87.685646 11.124118 62.856644
82.737381 15.769895 66.547157
83.815857 15.277883 64.627419
88.362679 12.192058 59.280853
86.666412 13.976466 60.104691
88.18895 13.112748 58.048527
79.262886 2.779458 97.892975
78.018349 4.2730951 98.371994
77.495285 4.9022989 98.420471
80.148216 3.3884974 94.807755
73.670906 9.8493547 98.784851
81.600876 4.6273413 89.001221
66.122009 19.860851 99.339821
68.855759 19.488747 93.291145
84.109474 6.9769812 78.897713
72.718979 18.840157 85.309227
85.669571 8.6001616 72.196861
74.12384 18.473011 82.73278
74.113701 18.478203 82.541046
86.00869 9.0036612 70.859245
77.555824 17.59959 75.812202
80.130348 16.692181 71.224236
81.630348 16.163582 68.538734
87.772888 11.223123 62.589859
87.845612 11.338841 62.121021
84.439705 15.003385 64.010185
85.887512 14.33141 61.709549
86.598969 14.006814 60.460381
77.92424 4.5568132 98.38559
74.759583 8.6279306 98.686462
80.552017 3.7373514 93.306618
81.041122 4.1169176 91.759262
71.315002 13.098451 99.005066
71.340302 13.183278 99.006004
68.961281 16.28083 99.233253
66.568214 19.345028 99.460358
70.400383 19.239258 90.579399
70.958595 19.155396 89.236542
85.651642 8.5453005 72.781029
76.792618 17.809639 77.510078
86.81076 9.9748621 67.479538
78.223991 17.371544 75.056107
78.397659 17.299934 74.716827
79.307732 16.978176 73.231819
79.564438 16.89872 72.720665
80.330399 16.619492 71.16684
87.759727 11.172114 63.078796
83.357468 15.485843 66.093185
83.729263 15.316022 65.545372
88.174377 11.703795 61.216141
88.157173 11.699876 61.07476
86.107826 14.241246 61.678406
86.46357 14.068122 60.960464
86.79911 13.914443 60.701805
87.043869 13.802699 60.306107
88.019951 13.332427 58.656052
77.705734 4.9296675 98.398972
80.200554 3.4022646 95.084656
76.10611 7.0407972 98.562592
74.089272 9.6240435 98.744003
80.946457 4.017251 92.435684
71.223259 13.461692 99.020782
69.907478 15.149205 99.155746
66.853317 19.155716 99.448341
66.679932 19.383614 99.454941
66.898514 19.776897 98.338478
84.937759 7.7848806 76.095016
71.501717 19.062778 88.564774
85.214676 8.0669813 74.989761
72.563049 18.861526 86.231392
74.042 18.498009 83.376526
77.092735 17.715477 77.567085
79.402527 16.944519 73.097214
79.996193 16.743977 72.30658
80.20784 16.659626 71.808083
87.745255 11.138112 63.341614
84.18187 15.119815 65.141724
85.487312 14.512919 63.018593
88.441582 12.439908 59.483585
86.985146 13.840241 60.550621
87.656075 13.533765 59.577671
87.76149 13.485585 59.444561
88.141899 13.221097 58.757187
88.137421 13.226739 58.756943
79.259666 3.1819372 98.268425
79.610222 2.9642153 97.564156
80.184875 3.3646021 95.713272
80.965332 4.0105181 92.719826
81.015762 4.0725775 92.401871
81.198982 4.208642 91.80394
73.452347 10.607924 98.819267
72.663239 11.690007 98.89621
72.44812 12.030263 98.918472
81.90274 4.8152037 89.073914
82.195908 5.0616846 87.77401
68.756195 16.859463 99.261742
67.391716 18.682747 99.39341
66.750076 19.801495 98.906471
83.359306 6.1237898 83.138382
68.890686 19.475677 94.241867
84.11058 6.8821306 80.064079
69.435837 19.390511 93.119148
84.361496 7.1440325 78.974625
69.656067 19.346691 92.621933
69.695648 19.352119 92.457611
70.086624 19.280361 91.681465
70.198685 19.269814 91.635788
84.647499 7.4302568 77.905266
70.467659 19.220612 90.909134
71.81073 19.0135 87.985321
73.221985 18.70266 85.170792
76.571632 17.84536 78.721069
78.24395 17.349979 75.559311
78.410881 17.301991 75.230095
79.126266 17.037357 74.213654
87.227814 10.454263 66.293747
79.473015 16.926678 73.469833
80.905388 16.41124 70.913185
81.169868 16.328823 70.41925
81.469727 16.222019 70.039688
82.800575 15.750138 67.497231
83.220688 15.558293 66.852341
84.171394 15.124288 65.327606
86.955627 13.841949 61.037567
86.90065 13.878142 61.059647
87.181946 13.75002 60.446869
77.464188 5.5935678 98.432022
76.322525 7.0689058 98.540756
81.91777 4.8009195 89.256912
82.132919 4.9735823 88.567337
69.024902 16.63834 99.249771
83.834206 6.58603 81.545074
68.542564 19.525494 95.221512
84.528 7.3136129 78.484596
71.606689 19.046726 88.916077
73.317047 18.674343 85.331917
85.678925 8.4887686 73.679916
86.137627 9.0329065 71.754257
75.28215 18.165779 81.656693
75.31279 18.159462 81.482445
75.501373 18.111458 81.145149
76.026871 17.988846 80.143051
86.39901 9.3810472 70.313599
77.562225 17.587387 77.169662
86.873817 9.9691038 68.24823
78.029388 17.422688 76.344055
78.19603 17.375282 75.948761
87.246689 10.435761 66.566048
87.291443 10.50809 66.327538
81.339165 16.255127 70.584976
81.392517 16.24712 70.468636
82.827255 15.72619 67.896469
83.700752 15.327683 66.346191
85.152695 14.664523 64.202026
85.457794 14.536473 63.575596
88.44902 12.144044 60.638802
86.250183 14.174691 62.330574
87.334534 13.679769 60.536766
88.282738 13.043485 59.360909
81.05941 4.0633307 92.77562
73.964317 10.42578 98.78421
72.682228 12.054032 98.895485
71.724968 13.279578 98.996338
69.19236 16.531239 99.236938
68.689484 17.3489 99.279617
83.049088 5.7617331 85.021431
67.504517 18.805107 99.390327
83.230988 5.937007 84.261925
66.90593 19.770214 99.222687
67.716087 19.648533 97.273178
83.922684 6.6663389 81.329514
69.631363 19.340988 93.223183
84.649429 7.401742 78.324501
85.264351 8.0415239 75.683411
72.664406 18.82365 87.021591
72.845512 18.777786 86.678329
85.773407 8.5800943 73.545723
86.003387 8.8543673 72.490913
75.320976 18.154396 81.707947
76.212479 17.927364 80.120842
86.462296 9.4183817 70.548691
77.30629 17.66024 78.091492
79.515831 16.90675 74.060471
87.887733 11.210027 64.02224
82.351547 15.895797 69.125252
86.680038 13.977662 62.086079
87.388298 13.643245 60.998192
79.750229 2.9992208 98.130508
77.625465 5.8563108 98.43013
80.569595 3.6265039 95.034309
74.85881 9.466073 98.70462
81.64325 4.5210962 91.073914
70.304092 15.380025 99.139214
82.505157 5.271697 87.567482
69.923393 15.900842 99.166283
68.325775 17.958271 99.318237
67.05246 19.744678 99.073181
84.054405 6.7444315 81.415794
69.650192 19.341663 93.56192
69.793762 19.309223 93.256805
84.974854 7.7076578 77.384499
85.336716 8.0738688 75.974274
75.247345 18.167683 82.278542
76.228371 17.920799 80.295067
77.022041 17.72924 78.869583
77.753441 17.51561 77.433411
87.317505 10.454564 67.11496
87.455063 10.632123 66.427017
87.478966 10.677602 66.125717
80.634445 16.510769 72.305054
80.647644 16.506744 72.19371
81.226395 16.291008 71.318329
81.563202 16.182667 70.754471
82.166992 15.958871 69.725624
82.261604 15.926187 69.465019
82.438637 15.874955 69.079575
82.715538 15.766871 68.563538
83.054939 15.632512 67.9319
83.914536 15.228852 66.69957
85.3937 14.553613 64.317764
88.476105 12.057662 61.507385
85.661667 14.442353 63.835869
85.887329 14.327987 63.674187
88.504524 12.401391 60.565643
88.374115 12.941905 60.207397
88.420349 12.808135 60.063942
88.165863 13.238019 60.182766
79.366753 3.6704321 98.266129
80.409607 3.4619322 96.300484
77.885338 5.5620127 98.41658
77.138115 6.6117601 98.480133
80.657219 3.6744413 95.105972
73.621918 11.096206 98.818329
73.379822 11.529271 98.849823
72.590179 12.611188 98.916779
82.222229 4.9945707 89.079124
70.208145 15.722522 99.144592
69.51725 16.501507 99.20713
68.268188 18.10397 99.33577
67.40538 19.220753 99.40799
83.558083 6.2004709 83.93399
67.447006 19.668507 98.514557
83.626945 6.3081179 83.307785
67.836899 19.602669 97.994797
84.19529 6.8827925 80.926025
69.42276 19.36972 94.4599
69.858299 19.302528 93.514214
85.107285 7.8327341 77.167709
73.199127 18.680054 86.666809
74.181274 18.44149 84.821617
75.61586 18.069695 81.955711
86.641258 9.6006937 70.426041
77.297508 17.64661 78.547096
86.967163 10.002608 69.030014
78.83213 17.142727 75.966583
80.155052 16.677021 73.53289
81.533112 16.190838 71.142487
87.772949 11.030353 65.154663
84.671646 14.893357 65.959885
88.428749 11.886657 62.141022
85.072433 14.710561 65.225655
85.512161 14.498639 64.622604
88.009567 13.349042 60.545242
88.278328 13.099746 60.244034
80.021912 3.1318922 97.886665
75.857941 8.372407 98.605095
81.065445 4.0019464 93.799126
73.334595 11.641915 98.855682
82.29805 5.0494967 89.112907
70.246323 15.760793 99.143448
69.605301 16.650101 99.206245
67.46109 19.666397 99.062904
67.495483 19.665142 98.755226
69.484222 19.356899 94.518684
69.61676 19.325809 94.258293
84.980362 7.6817694 77.977844
71.966705 18.967258 89.511192
72.633347 18.831615 87.902451
72.805428 18.785389 87.789238
73.534882 18.603481 86.182648
73.755722 18.534191 86.007713
73.719452 18.546135 85.853775
75.043159 18.211781 83.277435
75.178284 18.18758 83.049347
86.724045 9.6584978 70.455803
86.828796 9.8027773 69.985779
78.650948 17.20459 76.563438
87.195755 10.279571 68.112015
81.325882 16.261887 71.786263
87.858765 11.103152 65.031311
83.386688 15.468667 68.194405
84.447769 14.995002 66.635895
87.06015 13.802783 62.230888
88.07766 13.308444 60.775322
80.171043 3.2233515 97.807213
80.573181 3.5449762 96.352005
81.346115 4.2126722 93.311714
81.59436 4.4379492 92.105789
81.802048 4.6063929 91.412308
72.95179 12.370088 98.898819
82.178482 4.9303865 89.86087
82.780556 5.4387789 87.53405
68.223602 19.546631 97.529785
84.37352 7.0109396 80.963066
85.058441 7.7305517 78.097176
71.59111 19.024761 90.35202
85.311638 8.0013952 76.905777
72.888107 18.753036 87.720474
85.795143 8.4848509 74.92981
74.371544 18.386395 85.017632
74.672623 18.312279 84.276138
75.304642 18.152859 83.029045
86.25914 9.0565653 72.803322
75.64827 18.066643 82.313858
76.344139 17.87822 81.142319
78.374962 17.301186 77.149353
79.574722 16.877594 75.111198
80.466583 16.561954 73.702209
82.34137 15.892356 70.111
83.761597 15.297006 67.880547
88.38015 11.728786 63.102207
84.708862 14.864327 66.494629
85.011398 14.726163 66.03511
85.722458 14.401706 64.808914
88.194824 13.214089 60.834167
80.310066 3.3124552 97.715416
78.441429 5.3944864 98.369347
80.726662 3.6512327 96.126503
76.934219 7.3017912 98.511742
75.571281 9.0747023 98.641876
72.793701 12.822671 98.910942
72.634766 12.974856 98.924568
71.596436 14.321906 99.023605
70.270554 16.141754 99.152924
67.624001 19.624271 99.104843
68.684319 19.456581 97.037201
84.151482 6.7494822 82.343277
69.715096 19.299931 94.660744
84.523956 7.1524954 80.700569
70.930862 19.119751 92.181442
84.92524 7.5624819 79.082367
71.11776 19.078854 91.882744
85.510788 8.1570749 76.598442
73.374756 18.633602 87.324249
73.471886 18.59816 87.181229
73.887787 18.506477 86.127892
85.930313 8.6078882 74.748665
74.413132 18.373718 85.111443
86.027168 8.7512045 74.203491
75.243301 18.150734 83.731644
86.268768 9.0391474 73.126312
77.257942 17.643837 79.650635
77.742043 17.52055 78.78714
78.423424 17.281185 77.463486
79.382278 16.942532 75.853302
83.012505 15.638314 69.455551
88.56636 12.529119 61.571922
87.535599 13.584697 62.051888
88.402534 12.971387 61.245483
88.132782 13.290568 61.383919
88.183838 13.235406 61.323341
78.861588 5.0204191 98.344177
80.69014 3.6226339 96.416
80.97081 3.8649988 95.246696
76.576981 7.9367418 98.56073
75.944427 8.7684679 98.611374
75.620369 9.3063879 98.645638
73.936684 11.435472 98.814667
73.316986 12.276319 98.864822
82.351982 5.0252581 90.003456
72.407982 13.474965 98.95208
71.353828 14.806874 99.06163
83.152267 5.698247 86.797935
83.863647 6.4307184 84.023834
69.693573 19.307045 95.074463
84.451851 7.0405779 81.353371
71.801941 18.976067 90.82502
72.191093 18.919617 89.773445
86.018097 8.7028131 74.704964
86.274399 9.0149775 73.655685
75.848274 17.994434 82.834938
86.441162 9.2306871 72.816216
78.930672 17.099545 76.953064
80.255257 16.62109 74.727547
81.019104 16.357975 73.25753
87.996948 11.190085 65.643967
82.675911 15.780597 70.135666
88.153358 11.387185 64.921532
83.50843 15.411445 68.923882
86.902779 13.861833 63.494705
87.391693 13.649354 62.860359
87.419662 13.636949 62.616272
79.577629 4.2150831 98.269394
78.597443 5.6437101 98.367371
82.534256 5.1397371 89.736275
71.62867 14.68271 99.042046
69.115402 17.950321 99.281982
83.576401 6.1052256 85.456802
68.084244 19.249275 99.379227
69.028656 19.394127 96.825684
69.412567 19.3311 96.209984
69.499702 19.317928 96.005928
70.202614 19.223572 94.253792
70.395157 19.17844 94.137047
85.036636 7.6210928 79.232689
85.202599 7.7795248 78.719299
72.414856 18.870335 89.652519
85.532173 8.154048 77.034737
77.643478 17.549469 79.49501
77.724777 17.510815 79.534897
78.220581 17.348568 78.389969
78.348335 17.292912 78.164291
80.487541 16.548092 74.555832
80.835815 16.42564 73.894287
82.676727 15.765296 70.733139
83.078232 15.618077 70.025238
83.716415 15.326911 68.903877
84.759399 14.839643 67.312637
84.823669 14.810519 67.092628
85.346603 14.571689 66.312347
85.868752 14.333497 65.372124
88.592964 12.124782 62.823772
86.985184 13.823752 63.621498
88.316299 13.114545 61.636269
78.322418 6.1715975 98.398499
77.06498 7.7780657 98.52774
76.548874 8.4349947 98.576607
74.091843 11.651961 98.801796
71.697571 14.721793 99.029137
71.025887 15.674664 99.095528
68.927788 18.330166 99.293762
83.857025 6.3901091 84.52475
68.860565 19.41399 97.540581
69.710953 19.282459 95.712158
70.695869 19.141148 93.546799
71.646233 18.990921 91.690704
85.431366 8.0094976 77.849457
73.544373 18.570538 87.789673
77.398376 17.607445 80.28817
77.528625 17.564911 79.973145
77.958687 17.425945 79.451996
78.010826 17.408081 79.288658
82.622292 15.793744 71.020729
82.801292 15.731233 70.622223
83.584671 15.386329 69.521652
84.441589 14.984355 68.034256
85.139145 14.676621 67.06501
88.585114 12.00587 63.521935
87.559258 13.561109 63.016312
88.470444 12.924264 61.969128
80.990028 3.7991266 96.465302
78.115318 6.5594759 98.431671
77.300766 7.665761 98.500763
82.765907 5.2889299 89.571968
69.356308 18.017311 99.259834
68.23111 19.363777 99.363922
69.799042 19.259342 96.06945
71.381599 19.025925 92.60051
85.459496 7.9959459 78.328682
72.483734 18.845768 90.094849
72.913147 18.724247 89.479584
72.967941 18.720821 89.365532
74.223633 18.395638 86.734863
86.322845 8.9834223 74.417038
86.36927 9.0293665 74.358856
75.602425 18.046383 84.130386
87.204971 10.109124 70.333794
79.195213 16.989899 77.278336
83.070419 15.620984 70.408699
84.367767 15.017362 68.544876
78.825455 5.8378572 98.369644
78.503525 6.1792192 98.388153
78.300201 6.4741945 98.40844
81.796875 4.4585123 93.508385
82.297417 4.8814878 91.569092
74.541 11.382426 98.767899
73.887222 12.260541 98.841133
72.862511 13.661187 98.930893
71.017944 16.058357 99.116966
69.99588 17.268425 99.211151
69.141479 18.413231 99.293686
84.028069 6.4959612 84.626495
69.196335 19.358391 97.614365
69.459732 19.309578 96.927834
70.042282 19.217327 95.79921
84.61438 7.1155672 82.147903
85.036713 7.5413256 80.351196
72.805641 18.757103 90.06012
74.842865 18.233406 85.997025
75.203491 18.144535 85.117363
76.835014 17.732086 81.968666
77.305908 17.609901 81.312828
77.64032 17.537495 80.528282
78.084343 17.389423 79.618896
78.267952 17.324429 79.330521
78.855927 17.106705 78.26651
87.361404 10.272985 70.025055
79.558846 16.869179 77.069305
79.928093 16.738113 76.538139
87.523918 10.459401 69.336365
80.703697 16.454861 75.053902
87.682846 10.687686 68.42054
82.48954 15.835683 71.926338
84.369736 15.015719 68.958191
87.078018 13.779773 64.36866
88.286972 13.190534 62.764236
80.510666 3.7961836 98.213028
81.946861 4.5518312 93.453697
74.59166 11.447953 98.776833
82.597023 5.1098719 90.98233
73.808067 12.446229 98.841034
71.602615 15.407399 99.054253
83.481308 5.9114122 87.19458
70.079384 19.216774 96.006874
70.967072 19.078972 94.127899
71.032242 19.058479 94.000839
71.128494 19.052563 93.864151
72.577652 18.810535 90.838188
75.683044 18.019104 84.529373
76.100288 17.924625 83.673744
86.849548 9.5753527 72.877159
77.153702 17.647182 81.7024
77.811806 17.471966 80.504936
87.647484 10.576676 69.243713
81.951035 16.01215 73.254669
83.970108 15.208854 69.758377
84.077866 15.159421 69.718811
84.569412 14.924039 68.930435
85.441307 14.537398 67.300949
85.925156 14.316175 66.720039
86.208389 14.186727 66.345306
88.660812 12.535462 63.337578
88.54071 12.860267 63.063782
87.927902 13.401917 63.487499
88.480865 12.966397 63.012138
78.794861 6.1777163 98.381134
78.646126 6.3645048 98.395142
77.227486 8.2383966 98.531418
75.08847 11.053555 98.726578
82.747002 5.2222967 90.442886
73.612595 12.899409 98.865387
73.481895 13.051171 98.877342
83.596443 6.006032 87.226807
83.842812 6.2622232 86.170555
83.821655 6.2546778 86.058746
69.328888 18.460056 99.274078
84.159424 6.579936 84.800629
84.278549 6.6950598 84.41256
69.036102 19.364094 98.472351
85.110901 7.5745478 80.822556
73.009369 18.689663 90.118195
73.350349 18.614719 89.38578
75.902534 17.969898 84.434967
78.901657 17.09668 78.80822
80.59269 16.499352 75.977013
87.667145 10.597255 69.371658
81.050003 16.328552 75.021294
82.576859 15.801587 72.227852
83.11132 15.58907 71.610184
83.159851 15.577949 71.503235
84.762207 14.846551 68.874977
88.038132 13.339936 63.688068
80.696167 3.931283 98.19606
80.419907 4.1645136 98.228844
81.250923 3.9478579 96.583946
81.806816 4.4090929 94.564102
77.076279 8.6162214 98.551025
76.243073 9.7011042 98.630615
82.25856 4.7848787 92.907478
74.810829 11.62518 98.759102
72.103249 15.092772 99.026093
83.519012 5.9153605 87.70105
83.738235 6.1363726 86.858582
83.895813 6.2910433 86.13768
84.084427 6.4872866 85.501465
69.412682 19.301693 97.901939
72.090759 18.894096 92.351036
72.244812 18.870659 91.997147
75.497421 18.066956 85.646317
76.097496 17.914326 84.564758
76.302376 17.854111 84.012115
76.553612 17.790188 83.560509
77.179214 17.640915 82.475143
77.777832 17.479679 81.15152
78.084229 17.371845 80.584229
78.718895 17.158703 79.46228
78.89035 17.086021 79.381416
79.107071 17.010628 78.858948
79.381653 16.914398 78.293983
80.548874 16.502911 76.228081
81.192535 16.275032 75.219856
81.260841 16.261509 75.109955
81.483231 16.183777 74.62397
82.075569 15.974504 73.638596
83.160225 15.566312 71.780823
88.413788 11.497487 66.428574
85.668671 14.432124 67.766235
86.223274 14.168015 66.838303
86.441528 14.079326 66.517159
88.032196 13.342055 64.02681
88.193665 13.271493 63.82169
78.987068 6.3229113 98.374069
77.620697 8.1152925 98.494949
82.385727 4.8815298 92.585098
75.289734 11.07702 98.725525
82.603851 5.0680819 91.704735
73.838165 13.066987 98.867035
71.613098 15.934525 99.06871
68.95256 19.314793 99.32045
69.254768 19.318577 98.675186
69.556671 19.281841 98.037827
70.786934 19.082439 95.33255
70.92363 19.071491 95.038437
85.085381 7.4803495 81.706161
71.546928 18.960789 93.934799
72.116806 18.872196 92.73568
72.197342 18.859024 92.603691
85.553711 7.9832754 79.648972
73.221672 18.638859 90.308975
85.915878 8.3623457 78.061516
86.043365 8.4912748 77.448761
74.570244 18.28569 87.861145
86.617416 9.1919394 75.079872
77.428223 17.565758 82.140366
86.988937 9.6680307 73.26545
81.264641 16.246746 75.486771
81.641609 16.114624 74.712868
82.274162 15.892041 73.53511
82.473877 15.82198 73.134125
82.615692 15.770837 73.041077
83.713982 15.318339 71.260048
84.895416 14.773692 69.26033
88.621941 11.811204 65.455894
86.332001 14.129092 66.824867
87.541702 13.576615 65.012428
87.75013 13.470508 64.657852
75.134125 11.464944 98.735672
83.478485 5.8038664 88.84642
83.577141 5.8913145 88.461624
71.668945 16.059837 99.079048
83.952202 6.2890844 86.918983
84.071381 6.4213114 86.117828
84.260315 6.60604 85.472214
69.278107 19.183975 99.307747
70.054153 19.196442 97.455704
71.196144 19.024014 94.75972
86.305481 8.7696314 76.884178
86.5243 9.0471182 75.851685
76.600983 17.768085 84.284027
77.085297 17.657322 83.245804
78.435921 17.241982 80.770653
78.920433 17.072147 79.78009
81.645569 16.110538 75.075745
81.809196 16.053291 74.7258
82.965668 15.656262 72.675591
88.443649 11.474694 66.875565
88.444389 11.482991 66.780609
84.61467 14.91245 69.92981
88.653114 11.846269 65.591667
86.255722 14.16293 67.498276
88.711533 12.554673 64.333122
87.763382 13.474553 65.138428
88.639313 12.775365 64.118195
80.062157 5.1823378 98.278793
81.789345 4.3116274 95.750557
77.383896 8.7951441 98.528191
82.506653 4.9228144 92.891792
75.320541 11.409493 98.733231
83.265465 5.5693541 90.051682
83.327789 5.624238 89.639725
83.845001 6.1703882 87.479691
70.396286 17.826317 99.193726
84.217331 6.5443926 86.06794
69.516739 19.275894 98.82132
84.784264 7.1181688 83.68425
70.540047 19.120541 96.454491
71.260361 18.998188 94.949791
71.37426 18.990425 94.724594
73.427078 18.579769 90.489029
73.541718 18.549026 90.409653
73.605438 18.522324 90.308594
74.514191 18.302532 88.587357
76.069138 17.911911 85.38974
76.546722 17.791878 84.412788
77.19384 17.616165 83.303391
86.928131 9.5500727 74.226852
77.958801 17.420128 81.707611
79.018196 17.034275 80.074547
79.177773 16.988453 79.816666
79.310471 16.93708 79.484299
81.225708 16.257793 75.924446
83.948418 15.204738 71.491234
84.080185 15.155911 71.085724
84.695702 14.874822 70.156967
85.69873 14.417104 68.444099
86.090599 14.22685 68.028397
86.341881 14.117684 67.590332
86.425858 14.074119 67.308891
88.74649 12.46087 64.713776
88.087524 13.315349 64.751068
81.359619 3.9162455 97.923431
79.994797 5.5627794 98.283569
79.782776 5.6820555 98.309357
79.661415 5.9558516 98.324265
82.961433 5.2818766 91.527191
74.842224 12.160886 98.782593
83.228966 5.5058794 90.523277
83.809326 6.1082354 87.983841
70.435028 19.128387 97.163437
85.023895 7.3679399 82.822662
71.161118 19.015736 95.623322
71.590446 18.939243 94.694206
72.253349 18.838055 93.192169
85.832077 8.187993 79.642822
86.197487 8.5999079 77.967842
86.327682 8.7742491 77.238647
75.844376 17.951286 86.392899
87.067162 9.6846476 74.089851
79.123398 16.995724 80.089287
87.67778 10.453382 71.278702
84.71907 14.863751 70.341118
88.778046 12.352994 65.226448
80.954117 4.3554201 98.203148
78.700562 7.3940916 98.411369
82.165939 4.580514 95.068367
82.312622 4.7300844 94.280434
75.260857 11.83252 98.738777
83.109772 5.3948488 91.147461
83.761772 6.0360613 88.506012
72.2201 15.780019 99.03891
84.503281 6.7720098 85.645233
84.715118 7.0078974 84.518379
70.69677 19.070621 97.009399
71.08242 19.024273 96.001312
74.170288 18.372181 89.808685
86.568756 9.0532694 76.433228
77.46907 17.55069 83.278938
77.786049 17.458523 82.79982
77.899506 17.43618 82.480286
78.364861 17.271076 81.800957
82.517319 15.795791 74.553909
88.172394 11.056701 69.24231
88.251587 11.165551 68.763992
83.144112 15.582263 73.142319
84.371185 15.021623 71.429825
88.281853 13.214622 65.082863
88.338448 13.189696 64.898224
81.455559 3.9654245 98.054016
79.901276 6.0053968 98.311684
78.609451 7.6114321 98.422897
77.763428 8.7072248 98.513557
82.894272 5.19946 92.375259
69.945618 19.193565 98.820282
70.581635 19.084549 97.480408
85.178375 7.4692831 82.991127
85.255951 7.5404043 82.79232
72.534424 18.790138 93.431061
85.832306 8.133235 80.23851
85.921494 8.2208223 79.928459
74.055313 18.408173 90.306259
79.706322 16.797188 79.560982
83.123039 15.580058 73.646774
83.232193 15.541366 73.38649
83.905067 15.222976 72.43235
88.727798 11.791266 66.863876
85.970383 14.291162 69.089371
88.033119 13.349589 65.727066
88.524734 13.032828 65.306808
81.66188 4.1150293 97.644043
81.838875 4.2680979 96.903351
79.774284 6.2207956 98.325241
78.169128 8.4033136 98.481216
76.214111 11.007915 98.66964
76.018906 11.213391 98.67688
83.612549 5.8348627 89.790588
83.887657 6.1028414 88.864761
69.954483 19.185585 99.181656
70.400719 19.10722 98.175339
70.739037 19.051647 97.634262
70.723999 19.069366 97.367065
74.844788 18.194614 89.074425
75.690186 17.97937 87.566895
86.715744 9.1611929 76.632462
86.846375 9.3264227 75.938156
76.966873 17.656376 85.122887
78.413086 17.24889 82.429672
78.548599 17.201565 82.127609
78.939201 17.054039 81.327026
82.49482 15.801007 74.967667
82.644791 15.759002 74.672493
82.69104 15.731957 74.603645
88.297798 11.143067 69.387863
84.20369 15.096927 72.352219
84.031578 15.164908 72.40831
88.76635 11.809037 67.234489
85.695686 14.405007 69.852928
87.453194 13.60262 67.063141
88.199104 13.273118 65.853561
82.082581 4.4400969 96.493484
77.93148 8.8362322 98.507446
77.375801 9.566144 98.560707
77.187881 9.8372164 98.569389
82.838547 5.1084185 93.283363
74.153778 13.765655 98.858574
73.794724 14.237195 98.89299
73.816498 14.18875 98.890335
72.077652 16.565945 99.059662
71.694962 17.05687 99.096008
71.906921 18.879303 95.233795
72.00309 18.852459 95.128166
72.183334 18.822506 94.860153
72.917587 18.687473 93.168747
73.235291 18.605694 92.674164
85.857658 8.1134615 80.776352
73.687309 18.493454 91.639526
73.908325 18.426147 91.301041
86.127014 8.4096003 79.570633
74.510651 18.284828 90.090622
86.331398 8.6669703 78.613998
75.52916 18.026501 88.194298
76.257736 17.833252 86.683304
77.643364 17.481598 84.120354
78.112869 17.342098 83.239044
87.333992 9.9152098 74.17173
79.82383 16.739895 80.074707
81.3097 16.226391 77.485985
81.441093 16.169945 77.183075
88.649216 11.555341 68.1483
85.602318 14.447034 70.340118
88.7976 11.884259 67.185486
86.579208 14.001302 68.642906
87.745712 13.479766 66.767197
88.104729 13.315488 66.40789
80.160095 6.1543131 98.300842
80.240562 6.0422182 98.282936
78.855606 7.9181643 98.427322
78.404991 8.4826593 98.459717
82.735168 4.9797945 94.333687
76.558006 10.77744 98.632988
75.050568 12.838368 98.779778
71.891678 16.959644 99.091774
84.893631 7.0948763 85.30909
71.533279 18.919758 96.44735
71.858261 18.868866 95.78447
72.091263 18.834522 95.18663
85.571289 7.7747412 82.577591
72.803375 18.70179 93.729599
74.039558 18.388134 91.436577
86.678436 9.0464563 77.563866
76.984077 17.644096 85.727386
78.437164 17.226856 82.790245
80.734802 16.416866 78.719063
88.057281 10.7786 71.262291
81.840637 16.037594 76.770615
82.043365 15.966199 76.401459
83.012039 15.613175 74.80748
88.36908 11.185719 69.645355
83.307076 15.505401 74.26049
87.23568 13.71194 67.954605
81.854195 4.2219439 97.958084
80.359421 6.0382395 98.285912
78.806839 8.0228281 98.423141
77.042023 10.434552 98.60498
83.232803 5.3983202 92.436783
83.338745 5.469636 92.31308
84.055176 6.2149134 89.017014
71.757683 18.878056 96.367599
86.180145 8.4177961 80.041107
74.992981 18.143024 89.925674
75.06752 18.136044 89.660294
75.603874 17.998466 88.785965
75.99968 17.889278 87.922295
77.542091 17.512665 84.711884
87.2799 9.7833014 75.214485
87.279686 9.7925539 75.097061
87.533722 10.084163 74.111755
80.030479 16.661797 80.430725
80.072342 16.647068 80.352295
80.220451 16.605793 80.048187
82.105171 15.94111 76.74604
84.784134 14.819291 72.353836
88.871124 12.080998 67.396553
86.7276 13.932446 69.023178
87.104485 13.77097 68.649559
88.096703 13.318179 66.958893
88.663689 12.908595 66.443825
78.430984 8.799243 98.477257
83.104309 5.2507524 93.548767
75.193268 12.988513 98.785767
74.305122 14.111812 98.85965
84.144218 6.257741 89.158752
71.723938 17.497219 99.106895
71.596268 17.70142 99.130188
71.589493 18.912251 96.845032
71.756065 18.881386 96.781082
85.980255 8.1642714 81.32505
73.807388 18.439575 92.467209
76.18824 17.839352 87.740448
79.538834 16.844799 81.43129
79.792641 16.753338 81.254333
79.883347 16.721855 81.026009
80.169601 16.611252 80.39061
80.468094 16.504929 80.012764
81.092545 16.285446 78.815689
81.392754 16.178921 78.379997
82.022789 15.958322 77.055115
82.789719 15.68768 75.734161
82.928558 15.647958 75.685539
83.6745 15.325238 74.48037
83.925919 15.210603 73.99823
88.779724 11.669957 68.690262
85.556274 14.466384 71.347763
86.379295 14.101789 69.946716
82.1371 4.4113722 97.643593
80.769913 5.9109659 98.258331
83.65332 5.7332659 91.546356
75.552002 12.717084 98.74707
83.965469 6.0621691 90.234863
74.098747 14.536595 98.893829
84.648224 6.7602987 87.299652
84.880539 6.9966383 86.55101
71.19635 18.363125 99.172417
84.86087 6.9969492 86.344406
85.095459 7.2240934 85.574074
72.101631 18.826412 96.126221
85.7826 7.929143 82.587036
73.420471 18.535 93.406418
73.542038 18.504318 93.167984
73.816498 18.431496 92.915146
86.361977 8.5652189 80.051041
86.997391 9.3793783 77.11541
78.035019 17.371399 84.58094
78.580696 17.179302 83.578766
79.285614 16.919128 82.474136
80.091774 16.636009 80.896439
80.30072 16.561829 80.599045
82.350616 15.849992 76.94313
88.900093 12.024592 67.863144
88.569122 13.036483 66.929947
82.625694 4.7846117 96.191025
82.913765 5.0408068 94.873825
83.024483 5.1519156 94.352173
83.099747 5.2136965 94.089188
77.927979 9.7275019 98.523094
83.349762 5.4225092 93.159225
77.316772 10.512383 98.581169
83.812454 5.861268 91.302284
72.327599 17.069241 99.064476
85.104439 7.2082243 85.714867
85.242729 7.3551607 85.251968
72.944069 18.649956 94.765709
73.747581 18.447075 93.197189
86.141769 8.2761145 81.592621
75.61338 17.974045 89.705429
76.173828 17.845119 88.4319
79.699165 16.771309 82.020828
88.316299 11.007344 71.447052
83.355675 15.480895 75.480385
83.630402 15.344268 75.170914
88.599266 11.335286 70.329559
86.239395 14.164201 70.988068
88.895386 11.954162 68.288086
88.012733 13.343911 67.997437
88.727287 12.867183 67.307259
82.257019 4.451108 97.965332
83.393311 5.4411325 93.27668
83.652512 5.6771402 92.237602
76.483253 11.793075 98.676384
83.778221 5.7887545 91.966354
76.32074 12.010829 98.692085
76.057304 12.289296 98.715393
74.687408 14.184773 98.839432
84.45639 6.5069265 89.051109
84.458244 6.5147409 88.786758
72.331863 18.76757 96.380051
75.202225 18.07328 90.876579
76.409409 17.771263 88.29332
77.021271 17.625587 87.223953
87.15593 9.5065508 77.119606
77.805023 17.417236 85.698166
79.094292 16.993847 83.273804
79.188759 16.960808 83.070717
87.666382 10.148776 74.941093
87.930885 10.474082 73.652611
88.439423 11.143439 71.115311
83.244331 15.519904 75.875305
85.067924 14.693217 73.029358
85.847672 14.331637 71.843933
82.617355 4.7323656 96.935059
79.603325 7.9552507 98.384766
79.07991 8.6555033 98.425285
76.075874 12.50352 98.720444
75.455368 13.301595 98.769409
84.122688 6.1512041 90.603867
85.458992 7.5270624 85.067139
85.730652 7.797967 84.064705
72.658249 18.711758 95.985535
74.491951 18.262249 92.322662
74.826416 18.165012 91.865334
75.526756 17.998817 90.474594
75.810425 17.918221 89.808289
75.876068 17.902443 89.615974
87.254089 9.6143293 77.030769
88.057533 10.609393 73.36953
82.885307 15.643659 76.987228
82.862373 15.652781 76.883408
83.007904 15.60176 76.586922
84.138062 15.111432 74.959595
88.608459 11.325644 70.71759
84.822144 14.810508 73.647171
85.207382 14.623376 73.186073
88.922981 11.802619 69.369545
86.186768 14.187371 71.556351
87.867554 13.40891 68.950279
81.571587 5.5026484 98.189896
81.450035 5.7045259 98.212776
80.960915 6.3891783 98.250839
79.763809 7.8871431 98.363457
83.268921 5.2820539 94.608368
83.872757 5.8668337 92.018341
75.818245 13.013453 98.740021
74.335587 14.910882 98.880699
72.622368 17.249424 99.047424
85.067993 7.0885439 87.017014
85.545555 7.584157 84.983292
85.901825 7.9454718 83.58432
73.826126 18.416107 93.938881
75.193756 18.069534 91.366776
86.62635 8.7873068 80.211197
75.845345 17.905048 90.090279
76.041687 17.864136 89.844444
77.998657 17.359074 86.06543
78.258179 17.273499 85.374382
87.412186 9.7734861 76.798798
78.482292 17.194462 84.979263
78.874413 17.067245 84.229927
79.794266 16.730438 82.862823
80.499344 16.48362 81.373894
81.087303 16.276291 80.339569
81.537659 16.126564 79.763321
82.026634 15.954947 78.792366
83.856956 15.250363 75.629044
84.390144 15.006856 74.831848
85.3395 14.562772 73.137474
88.886581 11.699136 69.854485
85.782791 14.370914 72.690811
86.671173 13.965413 71.233292
88.984062 12.215543 68.771698
87.215324 13.717294 70.195564
87.274353 13.690415 70.060165
87.429642 13.608071 70.074471
87.589752 13.535079 69.76329
88.474251 13.120267 68.370827
83.057091 5.0763292 95.666367
83.137444 5.1432657 95.370178
79.853615 7.993556 98.361267
83.221466 5.2236261 95.080902
79.342033 8.6841593 98.41082
77.754822 10.629498 98.568985
84.189507 6.1415758 91.251915
74.220955 15.309384 98.908783
84.806351 6.7913866 88.664009
84.83123 6.8176508 88.377838
85.062057 7.0722361 87.358284
72.355682 17.747349 99.077202
71.845741 18.823757 98.519547
72.885277 18.660084 96.091431
74.519638 18.247528 92.890526
74.663193 18.210564 92.66806
75.696762 17.936504 90.867996
87.034714 9.2502794 78.967072
77.125908 17.587868 87.929413
87.236389 9.5344381 77.828728
77.972038 17.365486 86.142555
78.590775 17.153992 85.093491
87.53701 9.8836012 76.642586
79.604141 16.805889 83.503372
80.068359 16.631901 82.641472
83.046242 15.582044 77.373825
84.538406 14.93855 74.937088
85.195099 14.638917 73.799126
85.550537 14.465716 73.200996
88.986748 12.025105 69.376945
87.405823 13.629453 70.380341
87.993935 13.361306 69.25164
88.46344 13.129094 68.642784
77.67453 11.011542 98.584579
77.412949 11.319844 98.608643
74.990814 14.421826 98.828506
84.90889 6.8647928 88.515945
71.989975 18.316296 99.124802
72.058792 18.354221 99.111855
71.678162 18.847626 98.997543
73.52417 18.482189 95.345833
73.807472 18.411461 94.72686
74.453102 18.258629 93.478546
74.741013 18.177494 92.762833
86.725769 8.8373384 80.687897
76.341293 17.771263 89.809532
77.260895 17.539433 87.983063
78.704391 17.110497 85.366814
78.842041 17.074074 84.919327
87.578957 9.9162741 76.699936
87.875923 10.297151 75.245514
81.977951 15.956323 79.586479
82.348076 15.838483 78.655296
84.338722 15.018277 75.517242
80.04319 8.0784388 98.352623
79.059303 9.2813883 98.444374
77.406303 11.446309 98.602631
84.42852 6.3514757 90.942665
74.049202 15.811633 98.923141
73.684097 16.437458 98.972321
73.05365 17.113392 99.028404
72.188232 18.25695 99.111542
71.888481 18.809921 98.843018
72.994217 18.624611 96.519035
86.237137 8.204442 83.40358
86.25444 8.2314711 83.202812
74.649353 18.195145 93.383797
75.769073 17.911812 91.2444
76.173477 17.809052 90.506897
76.267998 17.794861 90.378059
77.618759 17.455009 87.642807
78.468658 17.202446 86.028122
80.564888 16.453457 82.230263
88.163864 10.621015 74.400414
82.270599 15.851613 79.280327
88.503464 11.065108 72.797363
83.284309 15.494161 77.496544
84.225952 15.069032 76.099792
85.182251 14.643489 74.543121
88.962128 11.770871 70.2883
88.607315 13.037519 68.994232
82.651482 4.8818598 98.109184
82.045395 5.5895586 98.164749
83.154564 5.0926943 96.511719
79.489449 8.9068785 98.4086
77.606308 11.434505 98.600647
75.864197 13.748292 98.768341
73.502228 16.778004 98.982635
72.493668 18.173828 99.081345
72.118721 18.765701 98.843491
72.586632 18.694035 97.79673
86.058182 8.013196 84.243141
74.251442 18.290821 94.54641
86.279678 8.2411604 83.326706
74.513214 18.235085 94.034065
74.910362 18.135937 93.16745
75.891235 17.878464 91.207497
76.605263 17.70723 89.918129
77.436859 17.495918 88.402359
78.791817 17.085609 85.855179
78.905533 17.046757 85.484497
87.590683 9.89849 77.217285
79.450447 16.84306 84.654373
87.767242 10.097892 76.688965
87.815834 10.155591 76.341896
81.43116 16.155651 81.114708
82.473663 15.777905 79.212257
83.211884 15.528583 77.867302
84.178749 15.089993 76.502304
88.755661 11.347554 71.90583
88.874664 11.485269 71.59465
85.637344 14.424512 73.948288
86.381027 14.095971 72.766106
89.024628 11.924695 70.316971
82.004173 5.787921 98.182846
83.064194 5.0085497 96.984329
80.202171 8.2110071 98.357162
83.844887 5.6782751 94.199829
79.246964 9.5163679 98.450165
78.072571 10.973193 98.550262
84.17347 6.0372381 92.722961
84.726776 6.6179247 90.276283
85.526962 7.4514627 86.825394
85.752029 7.6733122 85.857315
72.629242 18.689896 98.153
73.345352 18.517654 96.474739
74.239052 18.292347 94.700172
74.758606 18.169689 93.830994
74.76619 18.1581 93.762482
75.601852 17.958488 92.046387
76.351883 17.755726 90.823929
78.416771 17.216106 86.756958
78.806778 17.079315 85.969894
87.703583 9.9975405 77.066742
87.859955 10.198462 76.463043
80.532547 16.470512 82.971909
80.643967 16.421459 82.655907
82.473778 15.775132 79.58873
82.890106 15.638261 78.953323
88.4953 10.993148 73.602325
88.606255 11.107539 73.239449
83.613998 15.358758 77.426308
84.283546 15.04176 76.557655
85.176071 14.645352 75.089882
86.551094 14.006707 72.851303
87.20369 13.708835 71.777359
81.167961 7.089694 98.258781
78.411423 10.751174 98.524155
78.402908 10.682584 98.532707
77.48999 11.903993 98.620834
84.606644 6.4452143 91.286835
72.797806 18.658173 98.115616
73.49057 18.48793 96.462357
74.001617 18.357971 95.538979
74.427872 18.249855 94.746155
74.842834 18.143921 94.028374
75.360825 18.015247 92.846909
76.786865 17.644085 90.119247
76.876106 17.619263 90.128815
77.444763 17.485802 89.039597
78.746841 17.098469 86.349648
79.729897 16.741173 84.624146
82.116837 15.89951 80.421425
82.293808 15.836141 80.243164
82.262764 15.848443 80.109474
88.504646 10.968585 74.011032
88.95694 11.600112 71.572388
86.658409 13.968163 72.977562
86.747162 13.927365 72.994064
87.579117 13.547578 71.654549
88.342178 13.188117 70.492752
88.896141 12.733136 69.75531
88.763885 12.93179 69.875725
79.490074 9.5386629 98.426605
84.62175 6.4513521 91.53006
74.414215 16.134483 98.911072
74.115623 16.543633 98.950195
74.104019 18.315948 95.808273
74.175064 18.308472 95.659714
75.339844 18.003742 93.406586
75.546249 17.951553 93.008629
76.292709 17.762459 91.599892
77.587204 17.434982 89.12059
77.648705 17.431763 88.846001
77.972519 17.351185 88.1185
78.101257 17.30798 87.890495
79.503418 16.817867 85.458191
79.650185 16.765041 85.347824
80.35762 16.517326 83.863281
80.534637 16.465717 83.526329
81.512756 16.108688 82.011833
88.348381 10.752572 74.970306
82.713219 15.686936 79.685272
88.573235 11.015048 74.024765
83.780678 15.281346 77.898972
84.330254 15.030156 77.188156
85.99527 14.270154 74.460861
86.480957 14.037726 73.521118
86.58551 13.989713 73.511757
89.089043 12.190881 70.562759
89.052406 12.459636 70.41745
88.067184 13.324094 71.248489
88.55069 13.100833 70.495178
82.602852 5.5462427 98.141022
84.231506 6.0123262 93.494759
73.272247 18.531654 97.806702
75.062805 18.079056 94.349327
75.334671 17.999886 93.832054
75.387268 18.000374 93.455391
87.529343 9.6761446 79.138023
81.387421 16.161198 82.550674
83.074257 15.556655 79.45874
83.404114 15.441033 78.783615
83.550186 15.37523 78.471527
88.911964 11.433566 72.581566
89.014732 11.607936 72.12281
85.664238 14.421029 75.131798
89.088562 11.87674 71.505379
87.65815 13.510673 71.991234
88.031883 13.328933 71.462906
82.619057 5.6553392 98.143188
82.591003 5.7188311 98.141632
84.594612 6.3755007 92.139938
76.094002 14.319486 98.761253
73.610275 18.443893 97.339935
86.280472 8.1171846 85.071831
75.193634 18.043316 94.311874
76.142052 17.806461 92.248398
77.147568 17.55014 90.481308
87.633133 9.7720442 79.092674
79.487564 16.818333 86.191063
80.866631 16.34404 83.57769
81.757866 16.018772 82.060806
82.586052 15.737437 80.595047
83.515846 15.390321 78.855942
84.677139 14.859841 77.179886
88.975372 11.491874 72.740578
88.996552 11.536944 72.527763
85.566566 14.453853 75.722565
87.483345 13.589513 72.80777
87.961533 13.371261 72.012802
82.108688 6.5295286 98.197937
83.632454 5.3559084 96.690704
81.243576 7.6958666 98.271698
81.045685 7.9357939 98.290085
74.796188 16.075249 98.897125
74.465034 16.537518 98.929642
85.580345 7.382493 88.340515
85.824776 7.612649 87.455276
74.400246 18.239868 96.164352
74.647278 18.177792 95.658127
74.818512 18.123264 95.399696
75.34729 17.991257 94.244843
75.422791 17.971279 94.170723
75.844009 17.875362 93.341614
76.257401 17.760864 92.514183
86.955551 8.9232588 82.325745
77.248703 17.509953 90.626205
77.804878 17.370342 89.473228
78.069176 17.302689 89.030823
87.649292 9.7972212 79.124634
79.524689 16.802574 86.493195
82.351822 15.817786 81.316299
84.075378 15.133952 78.480385
88.960724 12.70251 70.875565
88.717918 12.998006 70.94606
83.259346 5.2452478 98.084122
82.568489 6.1774626 98.151047
83.811699 5.5141191 96.15863
83.889778 5.6073122 95.82972
84.607567 6.3413134 92.926117
78.271233 11.699368 98.569427
74.928436 16.150665 98.881546
73.912231 17.478809 98.97876
75.553337 17.935856 94.113434
86.853699 8.7388697 83.326752
87.075172 9.0286531 82.254044
77.876831 17.357212 89.76387
78.906982 17.019939 87.641174
79.247223 16.909473 87.195648
80.147118 16.581738 85.585197
84.14666 15.100984 78.611473
84.288101 15.036578 78.290504
88.958588 11.414044 73.50544
87.213783 13.700803 73.673508
84.196167 5.877553 95.019859
80.535835 8.9900942 98.359962
79.748001 10.064919 98.436615
79.62648 10.24113 98.443726
84.596977 6.2958422 93.280396
84.75721 6.4654055 92.5522
78.157486 12.165616 98.589394
84.932808 6.6455374 91.833893
84.985878 6.7060747 91.705246
85.064331 6.7836504 91.425201
85.513649 7.2595987 89.376732
85.600456 7.3351297 89.037071
73.273346 18.512882 98.876297
75.251923 18.008465 94.983704
75.415504 17.964993 94.838737
76.375916 17.734932 92.795815
78.779221 17.072388 88.309402
80.240425 16.558201 85.593857
81.165581 16.231487 84.033234
88.208435 10.440469 77.305115
81.780403 16.003986 82.962051
88.337502 10.597646 76.776947
82.897949 15.620936 80.943893
83.648254 15.339004 79.681198
84.18222 15.095178 78.858612
84.542999 14.930219 78.427147
88.963547 11.385203 73.902008
87.22303 13.695991 73.993706
83.288124 5.4881296 98.099396
84.232651 5.9012651 95.236641
