ply
format ascii 1.0
comment PCL generated
element vertex 1597
property float x
property float y
property float z
element camera 0
property float view_px
property float view_py
property float view_pz
property float x_axisx
property float x_axisy
property float x_axisz
property float y_axisx
property float y_axisy
property float y_axisz
property float z_axisx
property float z_axisy
property float z_axisz
property float focal
property float scalex
property float scaley
property float centerx
property float centery
property int viewportx
property int viewporty
property float k1
property float k2
end_header
13.216671 74.800858 152.07265
15.535828 49.104752 105.51009
15.581203 49.104416 105.57474
15.677391 49.101295 105.69696
15.810825 50.532547 109.45665
16.128342 48.963188 107.12975
20.505039 17.404007 54.592155
20.864864 16.891693 54.679695
22.321053 14.740005 55.034027
23.636684 62.516846 159.97369
29.949787 4.6410522 58.386719
26.14991 55.51078 153.22292
26.647999 53.577789 150.70784
29.19635 43.262772 137.51199
29.73922 41.090988 134.66504
31.479626 34.229012 125.70029
32.612503 24.619881 108.98431
33.005753 28.280197 117.89953
35.966415 4.0467072 76.483551
34.773407 21.473541 109.4892
38.912346 15.563919 110.50643
43.492046 9.0442963 111.62059
43.978806 8.4687195 111.72864
45.271095 3.1078033 104.78384
45.320042 3.0945587 104.80492
3.7065125 64.195854 99.481232
3.7850494 64.49614 100.15658
4.1175232 64.46209 101.05434
4.5656166 60.740738 94.691483
4.6069984 60.527344 94.507889
4.8503189 59.521805 93.242569
4.97155 59.099091 92.589874
5.4140701 57.301895 90.339424
9.7816811 39.834755 67.778069
10.363743 37.487717 64.766373
11.108192 34.502556 60.876213
11.293987 33.945602 60.007278
9.7997665 56.785339 103.42402
12.328392 29.67659 54.629662
12.373558 29.619263 54.385773
9.2208214 76.591835 143.42134
11.185173 54.74939 103.76111
9.4165344 75.806671 142.45227
10.989948 69.574432 134.34026
12.539787 52.971794 104.08026
11.518799 67.465561 131.60999
11.615864 67.087738 131.06873
11.820461 66.381943 130.08359
12.374161 64.074158 127.1566
11.487717 76.636932 150.7485
16.172421 23.273338 53.528053
14.313309 50.441795 104.54953
12.192196 75.87677 151.28961
13.629013 59.006737 120.66184
14.657555 55.011238 115.42194
15.200775 52.848763 112.61846
17.951496 20.766739 53.960854
16.16341 71.28997 154.50737
24.908779 60.1707 159.32507
25.002266 59.824165 159.02686
25.79319 56.792526 155.07059
25.967186 56.102242 154.17322
30.460903 4.5969849 60.126003
28.031364 47.891754 143.52206
29.5196 41.895721 135.82297
30.071018 39.653419 132.96497
31.30257 26.891304 109.9311
31.360401 27.40979 111.25023
30.937283 36.286652 128.47295
31.032433 35.784256 127.94981
34.03809 4.2234344 71.194191
32.256222 27.342377 114.02983
32.664101 27.133804 114.80772
35.043541 4.1320953 74.245407
33.135303 27.387634 116.99028
35.24464 4.1116943 74.864197
35.550743 4.0797424 75.873749
35.887001 4.0477448 76.753975
34.781109 21.251968 109.50153
38.073513 3.8203583 83.164848
38.152527 16.451385 110.31145
40.742065 3.5598297 91.374016
40.43235 13.250839 110.87634
42.83482 3.3476105 97.81559
43.661476 3.263855 100.35469
44.162701 3.215271 101.73264
44.588505 3.1635132 102.93773
45.55669 3.0651855 105.92938
6.2240715 53.858505 86.05983
7.3386421 60.00296 102.82549
9.4738388 40.816147 69.303543
9.6751328 40.198029 68.312141
10.026947 38.682327 66.466621
10.333183 37.477295 64.889839
10.304359 72.154465 137.83978
14.514217 25.498367 53.124748
11.104141 68.865364 133.64238
11.463501 67.466011 131.79587
12.072502 65.094788 128.70929
13.045769 61.317276 123.7115
12.312492 75.511856 151.51511
14.276863 56.358749 117.30051
15.117092 52.903305 112.93553
15.277077 52.34494 112.13026
15.370865 51.965393 111.68719
17.820461 69.150612 155.96191
23.392231 12.932526 55.284561
24.99239 59.702278 159.08072
25.122501 59.149277 158.45071
26.159901 55.077286 153.06931
31.22438 4.5024872 62.993614
28.050167 47.610794 143.37161
28.529091 45.57299 140.86591
28.564209 45.506477 140.70369
29.185295 42.961823 137.43707
32.483139 4.3860016 66.783836
31.120502 27.025284 110.06073
30.328094 38.532715 131.61302
30.630825 37.193878 130.01601
30.735344 36.764175 129.43053
31.861603 25.386658 108.93808
32.06982 31.536621 122.56549
34.862164 4.1483612 73.843079
35.022274 4.1321716 74.33197
33.087929 27.454712 117.31797
34.091736 22.104858 109.32363
36.089012 4.022583 77.719925
36.509007 3.9731293 78.780716
36.773354 3.9528656 79.849243
37.71991 3.8492737 82.585487
37.88979 3.8417816 83.130035
37.980618 3.8304901 83.56208
39.800388 3.6492004 88.925804
39.264336 14.699036 110.58206
39.780918 13.949188 110.71804
42.08942 3.4162903 96.028915
43.709492 8.4862518 111.66341
44.581848 3.1585541 103.33035
44.897694 3.1249084 104.42221
45.039898 3.1112518 104.80346
45.475464 5.9337769 112.07793
3.6916428 63.998566 99.756561
4.2560425 61.545036 96.178154
5.2780304 57.455254 90.940872
7.2751656 49.461334 80.622658
8.659359 44.041977 73.502625
9.1004715 42.232178 71.212181
9.5555267 40.402435 68.858978
10.895481 34.935287 61.909222
11.338402 33.266495 59.647827
12.251881 29.683235 54.904751
12.517612 28.642639 53.537827
12.604954 28.117668 53.041103
9.2973175 75.866333 142.91736
9.1723938 78.585075 148.34634
9.4168358 78.529869 148.72134
9.864254 73.684067 140.01089
10.174511 72.355972 138.42812
10.746788 70.136086 135.4473
11.210846 68.357819 133.11276
11.396175 67.633011 132.11713
11.804047 65.923347 130.03247
11.16864 76.760941 150.61743
13.642487 50.949448 104.34889
16.354462 22.741364 53.582855
14.393414 49.880829 104.58025
14.4618 55.40097 116.33119
15.088356 49.003723 105.04469
14.722076 54.295898 114.92752
15.30883 51.990135 111.9497
15.337723 51.916016 111.81117
15.694832 50.503433 109.92801
14.388515 72.967033 153.26735
16.872952 70.06604 155.28952
22.953289 13.329041 55.177956
19.874126 66.654007 157.67303
26.430851 8.424881 56.023945
21.830086 64.445877 159.22586
23.193798 62.675446 160.0769
29.613312 4.6602631 58.445225
25.240929 58.533218 157.75946
25.54393 57.199142 156.1626
25.672783 56.793655 155.52542
30.1077 4.6073456 60.172546
26.817604 52.144302 149.63591
26.996258 51.545761 148.74313
27.817909 48.253967 144.45471
28.25798 46.376526 142.19362
28.446712 45.695755 141.23787
28.692173 44.773529 139.94281
32.82972 4.3360443 68.203682
29.819801 40.235863 134.11063
31.652924 27.368378 113.09698
33.61866 4.2651978 70.694824
31.405972 33.936279 125.92846
41.443558 3.4802856 94.150085
41.737244 3.4489288 95.170464
42.425205 3.3773193 97.423897
42.585655 9.9143219 111.39013
43.339924 3.2881622 99.974045
44.483864 3.1720123 103.50662
45.378147 3.0819702 106.21182
3.695816 63.503586 99.153839
3.7384186 63.901886 100.09273
3.8182907 64.046333 100.45874
4.1541214 61.587891 96.652649
4.749752 59.372009 93.576385
4.5212593 63.549164 101.66795
5.9793396 54.383972 87.20652
6.1440201 53.800629 86.375313
6.4477005 52.545151 84.838562
6.9288673 50.684525 82.369576
7.5944977 48.012978 78.886154
7.8217697 47.106491 77.712784
7.8757782 46.750229 77.397423
8.1675034 45.781891 75.984474
8.1771622 45.750778 75.936539
8.2022781 58.559326 103.02548
11.247341 33.51049 60.087097
11.236023 33.387665 60.059391
11.407776 32.796059 59.196877
11.889069 30.882805 56.756245
12.141968 29.922974 55.420677
12.224396 29.515762 54.974834
8.7956696 77.759048 145.52188
9.3984985 75.30751 142.3548
9.5115509 74.934319 141.83382
9.6214561 74.45517 141.25578
14.086746 25.638275 53.031418
11.666618 66.296074 130.69647
15.90937 23.047096 53.474831
11.583672 76.146973 151.02216
11.839863 75.813675 151.24835
13.237114 59.963768 122.52801
17.373898 20.993423 53.820801
14.523773 54.879883 115.94022
14.566826 54.655624 115.66176
14.601608 54.649338 115.51651
14.663555 54.249901 115.1572
18.867939 18.853058 54.19458
15.193291 71.848785 154.01477
21.642632 14.974167 54.869553
17.391037 69.365479 155.76068
21.592354 64.568443 159.11258
29.328678 4.6842346 57.929268
25.219017 58.263992 157.78015
25.360138 57.864746 157.13654
30.569019 4.5588379 61.719193
26.745956 52.337318 149.93925
30.839165 4.5280914 62.796772
27.001572 51.226807 148.59598
27.127151 50.68145 147.93607
27.202896 50.391968 147.54828
27.648087 48.556541 145.23431
29.133938 42.729645 137.58896
32.824474 4.3312683 68.577202
31.262474 25.869827 108.98674
30.39661 37.766708 131.08894
30.764507 36.209068 129.20874
31.812927 32.153053 123.78594
31.822578 32.009888 123.75153
31.861713 31.956619 123.53361
34.451538 4.1645203 73.713989
32.59631 28.860054 119.74036
33.001156 27.388992 117.68744
33.521675 22.430237 109.19561
35.805908 4.0326233 77.482559
36.189342 18.822815 109.84447
38.256565 3.7961273 84.88073
38.46909 3.7614136 85.764626
39.717186 3.6370697 89.443344
41.689373 10.941422 111.17229
42.145439 10.242203 111.28327
43.442612 3.2727203 100.65986
44.041161 3.200119 102.64053
44.716408 3.143692 104.57114
45.260632 3.0887604 106.22821
45.202774 5.8950653 112.01593
45.45969 3.0590668 106.80259
45.748791 5.1416779 111.99911
45.811527 4.8838348 111.91383
46.049736 3.0112 108.62253
46.414154 3.1677246 110.05585
4.0013809 63.780685 100.94051
4.9864502 58.157898 92.284332
5.1313591 57.661674 91.599991
5.4064102 56.450455 90.107735
5.4229546 56.345001 90.012077
6.9119339 50.514069 82.352745
8.7504654 43.243866 72.91951
11.559906 31.979233 58.399559
11.649651 31.543472 57.873474
11.677856 31.418007 57.767082
12.473438 28.332367 53.639751
12.531647 28.0802 53.334068
12.790466 27.452385 52.716072
8.6892929 78.500671 147.01814
9.3564377 78.293213 148.81308
9.972374 72.782471 139.33076
10.703495 69.856766 135.55357
10.467171 77.162224 150.2399
10.626942 77.095467 150.33701
11.589035 66.323715 130.98141
12.196217 64.050392 127.92772
15.657707 23.254898 53.413715
12.644169 62.173134 125.59151
12.474297 74.94709 151.82983
15.968994 48.791473 108.35221
19.54644 66.808456 157.53586
21.066494 64.988007 158.79666
22.485081 63.350365 159.87354
22.945587 62.790894 160.08867
29.364632 4.6831665 58.586403
25.683186 56.365509 155.37152
26.15324 54.344826 152.90692
27.417488 49.437424 146.45734
31.480663 4.4709167 64.929329
28.141907 46.438354 142.6463
28.190342 46.313431 142.4565
31.733215 4.4337616 65.817574
28.312305 45.842941 141.78842
32.168709 4.3898468 67.139816
29.514271 40.987961 135.60966
29.69445 40.344452 134.65634
31.219551 27.392715 112.27258
31.606167 27.264458 113.26095
31.847794 31.79628 123.59201
32.685387 26.587219 115.44185
33.021488 22.966629 109.06378
34.197392 21.382706 109.35493
37.406715 3.8623199 82.995712
38.853634 3.7297516 87.146042
39.196274 3.6856079 88.154816
38.908298 14.70697 110.49584
40.122612 3.598175 91.264984
39.510365 13.892532 110.65257
39.718616 13.508492 110.69302
42.318981 3.3704224 97.65892
44.602005 3.148941 104.6851
45.277454 3.0725555 106.60716
4.6747246 59.166031 93.87529
4.7044945 59.133163 93.701286
7.3151779 48.650391 80.247208
7.4567261 48.115372 79.481506
8.5090828 43.989754 74.10955
10.486946 35.999641 63.871895
11.528885 31.794739 58.479855
12.074162 29.709938 55.687981
12.156849 29.410919 55.269081
12.485909 27.994019 53.500526
12.819584 27.189774 52.723328
10.6558 54.566231 103.62277
10.765594 54.386703 103.65979
8.9297867 76.710129 144.6962
9.986515 72.440598 139.22626
10.202023 71.694633 138.10051
14.220608 25.049286 53.054001
11.696663 65.654388 130.36351
12.942314 74.188522 152.32053
15.322777 48.199539 105.29183
15.195663 51.78302 112.36322
18.214371 19.384819 54.025604
15.870667 49.11412 108.86311
20.501518 16.175735 54.581993
21.530773 14.720085 54.832382
16.89106 69.587471 155.54095
16.991547 69.505768 155.59286
26.796898 7.2482147 56.113525
26.371094 53.37355 151.79817
27.475636 48.85022 146.02249
31.464668 4.4661713 65.347916
28.144367 46.287231 142.63956
29.31918 41.590958 136.5289
30.746719 27.470253 111.61585
31.020092 25.739166 108.87201
30.080334 38.593674 132.65173
30.23193 37.967682 131.86353
31.120602 27.342133 112.47207
31.285839 25.429596 108.80043
31.444702 33.172531 125.57059
31.500183 32.819748 125.25003
32.476707 23.600586 108.94164
31.923939 31.273582 123.14211
31.983395 30.891296 122.755
32.61969 28.367561 119.51612
33.254166 22.547501 109.12045
35.291119 4.0717621 76.858215
35.085644 19.820328 109.56612
37.101849 17.026581 110.05656
40.121975 3.5881805 91.265579
44.847557 3.1210938 105.65627
45.457821 5.1333923 111.93745
45.583656 3.042984 108.17751
3.638752 63.098518 99.366425
3.8022842 62.401733 98.316284
6.1453552 53.121735 86.236359
6.1373901 53.067413 86.212624
6.1764984 53.013397 86.079727
6.2290726 52.73732 85.748505
7.5524826 47.43869 78.910751
7.6072922 47.222046 78.670815
8.7028503 42.891106 72.982109
8.7234421 57.162209 103.16308
12.407261 28.151276 53.908615
10.015228 72.17823 138.99712
10.736298 69.432404 135.35069
11.081116 67.993103 133.55386
12.279057 63.192604 127.36327
17.672371 19.989349 53.904163
13.234741 73.78093 152.59276
15.121124 51.971046 112.71974
15.207352 51.431084 112.18118
19.257141 17.751068 54.289696
26.149788 7.9621277 55.956257
27.483887 6.2088776 56.280701
28.067547 5.3198853 56.433029
26.034172 54.511002 153.44156
26.441055 52.843811 151.32938
30.905651 4.508255 63.96344
27.037376 50.538544 148.26968
31.930496 4.4145203 67.105507
30.384357 27.123825 109.98927
33.233814 4.2748566 70.933136
31.296429 27.159683 113.0962
31.568577 27.003845 113.63638
31.139088 34.088028 127.11227
32.06303 24.032448 108.83084
32.225132 29.854797 121.4882
32.85458 27.270058 118.2618
34.910835 19.950272 109.52368
41.036507 11.187286 111.02428
41.144375 11.073776 111.05049
41.980072 3.3950043 97.333527
42.137638 3.3789063 97.82814
42.129501 9.6693268 111.27986
43.296299 3.2698212 101.51231
45.297989 3.0678864 107.59656
45.712101 3.0172119 108.77226
3.7997246 62.177979 98.226303
4.0296555 63.187408 101.0173
5.2991066 56.217728 90.532997
5.3280334 56.006157 90.316162
6.089859 53.160492 86.475548
6.8110657 50.268425 82.748062
6.9341774 49.7034 82.050705
6.9746475 49.513168 81.834297
7.1963425 48.592995 80.680428
7.2298508 48.551956 80.573997
9.3502464 40.037582 69.611923
9.3761902 39.98587 69.491394
9.5067062 39.512482 68.829796
7.9125214 58.05378 102.966
10.094658 37.028793 65.715805
10.393394 35.926987 64.239319
11.08149 33.144035 60.676842
9.8184052 55.333107 103.42967
9.1843452 75.274254 143.27292
9.5357132 73.914429 141.42706
11.412239 53.173141 103.81734
11.607685 52.840302 103.86494
11.273033 67.082924 132.52554
12.509857 51.581482 104.0844
10.877373 76.296341 150.79677
12.524361 61.947731 126.02771
13.462418 58.289261 121.20618
12.042511 74.895859 151.77725
14.879341 52.658691 113.85374
14.960812 52.227722 113.40559
15.025631 52.034462 113.13045
15.09256 51.870033 112.81149
14.148895 72.57251 153.42123
19.56686 17.175407 54.354866
16.171257 70.13871 155.10477
16.394474 69.85511 155.29831
26.024948 8.0257721 55.925972
23.850826 60.919907 160.4543
24.77581 59.154167 159.70886
29.775539 4.6269989 60.917099
26.28867 53.097755 152.0244
30.648937 4.5263977 63.752586
27.725731 47.552681 144.6535
28.606033 43.981056 140.13553
29.702122 39.651276 134.44495
30.675808 35.720596 129.44832
31.540306 26.962418 113.68828
31.040592 34.382401 127.59521
32.056362 30.251587 122.3304
34.466019 4.1533813 75.205032
33.971905 21.212456 109.29531
35.445419 4.0467072 78.024811
36.286106 3.9627533 80.515869
37.331005 3.8534698 83.976883
37.55928 3.8431244 84.475258
38.049553 3.7955627 85.8256
38.257881 3.7749176 86.431641
40.817142 3.5062714 94.244408
41.510277 3.4434662 96.562752
44.374786 3.1583405 104.9875
45.576576 3.0376892 108.59731
4.5475578 59.017075 94.319168
4.6276512 58.762352 93.922462
5.4660568 55.404541 89.632874
5.5113869 55.198868 89.349815
6.7680016 50.176163 82.85939
7.4318848 47.430237 79.449013
8.6316376 42.721519 73.274727
10.209629 36.496796 65.103195
10.991543 33.284973 61.084736
11.345673 32.025513 59.296074
11.833313 30.027893 56.764828
12.120979 28.799789 55.258755
12.154305 28.771431 55.113808
8.9075699 76.180527 144.608
9.5624542 73.56868 141.22702
11.190323 67.198349 132.89688
14.952026 23.592377 53.242573
12.187302 63.036652 127.70168
13.622513 57.44632 120.28413
17.107647 20.466774 53.756744
17.608433 19.798096 53.888832
15.803333 48.77536 109.03198
15.828484 48.667892 108.94283
15.927605 48.198723 108.41193
16.059013 47.505905 107.34048
14.710945 71.747055 153.96626
14.951813 71.48481 154.15247
19.657417 66.014244 157.95865
25.118332 9.0635223 55.7159
21.57021 63.820953 159.49475
28.029793 4.9612579 56.424179
28.863461 4.7035065 58.547516
24.590317 59.42025 160.03317
25.005543 58.124878 158.62546
25.636578 55.630104 155.37329
25.681946 55.439758 155.1366
26.341686 52.763153 151.71875
27.549774 47.896713 145.46918
28.010708 46.101791 143.14328
31.675423 4.4178009 67.243637
30.148628 27.323685 110.33354
32.960854 4.3022461 70.849045
31.520824 24.393913 108.69926
31.652096 24.178696 108.7415
31.353535 32.900208 125.91891
31.463493 32.435135 125.30177
32.459431 23.040283 108.92761
34.800255 4.105011 76.561935
34.639427 20.075653 109.46815
37.082729 3.8868408 83.347183
37.140316 16.36055 110.06641
38.582699 3.7353363 87.920113
38.891472 3.6947784 88.812683
39.044609 13.741348 110.52962
42.734047 8.5241394 111.42716
43.26252 3.2625275 102.19597
43.85471 3.1957092 103.77965
43.853531 3.2014618 104.09743
45.102962 3.066452 107.8177
3.7636871 61.820709 98.282425
5.4608307 61.139679 102.3366
6.6429901 50.361626 83.466187
6.6601028 50.304184 83.338074
6.3083038 60.10968 102.56562
7.8552818 45.510773 77.160706
8.3388329 43.608459 74.713585
9.5998535 38.665894 68.183205
9.8298531 37.839325 67.019257
8.3420639 57.078522 103.0605
10.726891 34.2686 62.432457
8.9382553 56.231201 103.21584
11.478615 31.120499 58.469971
11.578552 30.83828 58.026787
8.5499573 77.427887 146.53137
13.388611 25.477905 52.852203
13.696533 25.177162 52.937286
11.835625 52.187668 103.92065
11.075474 67.322403 133.36072
11.335308 66.204521 132.04068
11.522888 65.570328 131.05922
12.668182 60.905235 125.12106
13.107834 59.194809 122.90497
13.522583 57.541595 120.72139
14.383553 48.670059 104.60678
14.259933 54.627281 116.96402
15.096901 47.670944 105.08861
15.188972 51.049385 112.20068
15.331284 50.470062 111.46288
15.540794 49.419205 110.28287
15.5905 49.300125 110.04678
19.500362 16.931625 54.349243
20.675091 15.281204 54.624733
19.269451 66.23082 157.77667
24.618458 9.5390167 55.594482
26.840397 6.5115204 56.124641
27.208485 5.8489227 56.214302
22.760059 62.255241 160.36929
28.343613 4.7582092 57.536293
24.644398 59.095299 159.98999
25.245445 56.937233 157.3696
29.825573 4.601181 61.857674
25.826012 54.578506 154.36107
26.796085 50.77681 149.32767
30.766212 4.5087433 64.537033
27.051479 49.715164 147.99796
27.590771 47.61702 145.22742
27.791824 46.876221 144.20523
31.735382 4.4111023 67.472542
28.57621 43.692062 140.18372
30.152225 26.639191 109.24624
28.886616 42.467957 138.58475
30.71516 25.552704 108.70325
30.629131 25.475723 108.6533
30.093315 37.675415 132.31755
33.288197 4.2534943 72.263794
31.667805 31.443031 124.24357
32.003906 29.98085 122.4343
32.902035 26.314148 117.44342
33.25634 21.774323 109.1216
35.205357 4.0688629 78.181625
33.799343 20.908875 109.26406
35.911552 3.9993134 80.203629
36.500347 3.929245 82.040329
37.229904 3.8542938 84.359108
37.902794 3.7978668 86.298714
40.257233 3.5610199 93.405525
42.59137 3.3179932 100.31918
42.591873 8.4612579 111.39278
44.363552 3.1397705 105.66446
45.114532 4.7918549 111.732
5.4766083 54.893547 89.456856
5.9645271 52.922188 86.888649
6.557724 50.460297 83.801254
8.4772873 43.000702 73.941818
9.1269608 40.311539 70.562271
10.26239 35.824951 64.711159
10.530281 34.825424 63.38855
11.948402 29.163498 56.022987
12.201973 28.171768 54.761482
12.26387 27.911346 54.395859
8.8594704 75.895309 144.77521
8.9375992 75.683517 144.39775
9.2484207 74.416718 142.74347
11.321785 52.701424 103.78553
10.122536 70.831879 138.24759
12.716118 60.664536 124.9033
18.396126 18.307442 54.070465
15.977116 47.495171 108.02514
19.805782 16.266678 54.413437
23.470711 11.023163 55.30508
19.230362 66.20784 157.78036
27.599537 5.1504364 56.30954
28.072609 4.7830658 56.895866
28.203842 4.7684631 57.395012
28.612972 4.720108 58.421867
26.081223 53.479416 153.0224
26.153728 53.005905 152.55771
27.180122 48.940659 147.26602
27.518677 47.649109 145.5334
31.194511 4.4661407 66.530426
27.721722 46.813446 144.47839
27.955536 45.924316 143.28253
28.18124 44.936249 142.09442
28.515358 43.78157 140.45818
30.004723 37.799171 132.75795
31.250053 24.45694 108.63363
30.65889 35.159698 129.37273
30.975853 33.81852 127.67381
32.020672 29.735855 122.34406
34.985622 19.125526 109.55273
39.889828 3.5913849 92.780701
40.788078 3.4918518 95.429657
41.018661 3.47052 95.989006
41.931782 9.3114319 111.24255
3.6090202 62.524841 99.889526
4.9643936 56.66404 92.030655
4.8034058 61.657021 101.97864
5.5509872 54.400139 88.979233
6.3281555 51.236214 84.950241
7.4257622 46.849243 79.323654
7.9273376 44.917114 76.70929
9.2411804 39.648621 69.961372
9.5389671 38.499878 68.43409
10.823944 33.455139 61.820816
12.000935 28.708519 55.730709
9.072731 74.882149 143.63205
11.038204 52.869156 103.71673
9.3107529 73.972939 142.37103
9.5411072 73.027588 141.17487
14.327972 23.79422 53.081001
10.62262 68.621819 135.56734
12.492561 61.270325 125.98338
12.700542 60.335281 124.88225
12.726109 60.272171 124.76033
13.145287 58.562515 122.58642
14.878471 51.647095 113.59505
16.02597 47.053467 107.32091
19.663139 16.205376 54.38924
19.730682 65.4105 158.29788
25.965309 53.60984 153.53479
31.203564 4.4612122 66.852867
29.68084 27.07531 109.63512
28.770496 42.535248 139.08163
32.389797 4.334259 70.256973
29.705776 38.639473 134.16751
30.030991 37.377007 132.4975
31.267883 26.670212 113.8641
30.782944 34.324036 128.60135
31.500023 31.469147 124.90053
32.098736 25.979927 115.15319
32.162239 28.860619 121.4901
32.574474 27.231461 119.40823
32.798729 25.868423 117.24493
35.899994 3.979599 80.966919
36.966133 3.8802185 84.343323
36.515625 16.681786 109.91488
38.449276 3.7243958 88.569839
40.323967 11.28923 110.85165
41.852051 3.3805389 98.956604
42.070099 3.3594971 99.548103
42.988838 7.5790558 111.4999
43.192463 7.1928558 111.53923
43.832771 3.1809082 104.96272
44.057335 6.1159973 111.74952
45.313076 3.0680237 109.3849
45.25248 3.9377594 111.15623
4.0946884 62.141609 101.21121
4.5947876 57.88063 93.872086
6.5483017 50.180954 83.810257
7.5648766 57.767746 102.87176
9.8599586 36.924393 66.657738
10.077644 36.071968 65.53801
10.198753 35.671753 64.934189
11.411308 30.804085 58.708405
8.5625343 77.501617 147.74754
8.6264267 76.400597 145.86839
11.042789 52.797623 103.72818
9.6040688 72.483932 140.77399
11.361412 52.331635 103.8057
9.6880341 72.209396 140.3987
9.9117393 71.34552 139.20853
9.5971756 76.863358 149.97879
10.438866 69.315285 136.54837
10.834618 67.602318 134.42773
11.650475 64.452347 130.24258
11.829735 63.756577 129.32202
11.900513 63.442215 128.9483
12.281921 61.868431 126.96559
12.409081 61.429817 126.36945
12.746887 59.941544 124.5463
16.191219 21.0308 53.544674
16.666946 20.300629 53.66045
14.462646 47.957718 104.64206
12.338703 73.872902 152.36871
13.924126 55.316246 118.4866
14.708118 47.583313 104.8022
14.939445 47.336304 104.96629
15.589149 48.70771 109.94131
15.707634 48.324661 109.3528
18.423355 17.865219 54.077415
18.987797 16.979507 54.214798
26.079185 7.0348358 55.95018
21.477299 63.33252 159.73944
26.471138 6.4761353 56.045532
26.504093 51.350418 150.72449
26.938992 49.649307 148.48788
27.566277 47.090897 145.19211
27.857903 45.967766 143.69687
27.990078 45.332001 143.02888
31.532764 4.4236603 68.171661
28.388058 43.859543 141.00395
28.66597 42.581665 139.48267
29.101078 40.99324 137.27441
32.7421 26.490967 118.52419
39.559738 3.60495 92.49115
39.284554 12.543808 110.59895
40.578262 3.5139313 95.461403
41.491646 3.4133759 98.119926
42.174446 3.3424683 100.34281
42.262005 3.3439789 100.58562
43.588936 3.211319 104.53117
43.913769 6.0265808 111.70824
7.6181526 45.730331 78.239243
10.430103 34.591324 63.698875
11.762577 29.240471 56.85273
9.6502495 54.573242 103.38956
12.104496 27.737885 55.008881
9.5429726 72.599258 141.05611
10.077129 70.355682 138.26903
14.596169 23.157127 53.156738
14.672653 23.074203 53.165031
10.871326 67.218193 134.21912
11.431351 65.044304 131.34329
11.794891 63.533783 129.45073
12.109173 62.35379 127.84716
12.650124 60.10379 124.98784
12.694427 60.005592 124.82201
12.726112 59.822784 124.64382
12.814873 59.492294 124.19164
12.978909 58.908096 123.3204
13.34639 57.535179 121.48978
14.141846 48.094101 104.50555
13.66436 56.198975 119.83051
13.636734 56.235641 119.95407
15.592148 46.581764 105.76779
13.530083 72.379051 153.39157
15.897285 46.47123 106.54184
19.085617 16.646576 54.23875
19.907326 15.576302 54.448868
16.249229 69.123795 155.64627
21.037918 63.654282 159.46936
22.447479 61.916016 160.54593
24.093262 59.464066 160.69672
27.166607 48.361374 147.21417
27.750843 46.179916 144.23648
29.713268 26.370872 108.88644
32.063732 4.3592682 70.212494
29.089428 40.865097 137.33185
29.081665 40.78009 137.34189
32.399178 4.329895 71.272202
29.434334 39.362183 135.47563
32.605152 4.298996 71.906357
29.785824 37.974495 133.70718
29.797985 38.007484 133.66553
30.466877 35.248993 130.18864
33.131531 4.2553711 73.546494
32.041077 28.946419 122.05513
32.800327 21.596855 109.02159
32.46685 27.228302 119.80924
32.526505 27.090576 119.52721
36.701378 3.8899994 84.044586
37.139305 15.495651 110.06684
39.591324 11.96727 110.66341
41.732121 3.3908081 99.461006
42.703251 3.2928925 102.40956
44.104702 3.1436615 106.51057
44.93293 3.1040192 109.32212
4.719696 57.088501 93.108421
5.4763527 54.060287 89.19928
4.9806023 60.835396 102.09971
6.2963371 50.76841 84.960281
6.77668 48.919029 82.497612
7.0449333 47.887192 81.1651
8.316925 42.693512 74.566849
8.4857712 42.127846 73.723045
8.9412155 40.171021 71.335304
9.8938065 36.451324 66.395363
11.809906 28.77092 56.492989
12.203423 27.214691 54.507378
12.273567 27.042007 54.172997
13.880188 23.912079 52.982758
9.4995155 76.687851 150.00797
10.185959 69.679871 137.6445
9.9938278 76.277588 150.55634
10.764694 67.388321 134.66089
10.230232 75.888489 150.85947
12.962135 49.675507 104.19543
13.086792 58.17981 122.72868
14.323593 53.214447 116.29236
15.189739 46.741959 105.22308
15.021622 50.491692 112.70447
15.086349 50.252747 112.41783
14.542728 71.011154 154.30032
21.503536 13.016769 54.837425
17.278996 67.834206 156.52957
20.060043 64.647011 158.76202
20.935642 63.547256 159.51474
29.982849 4.5674896 64.381691
27.147911 48.244125 147.26096
30.828693 4.4811096 67.029045
27.587791 46.420959 144.92957
27.673309 46.272858 144.53812
28.57254 42.624207 139.87949
29.852516 27.445419 112.05066
28.835812 41.534622 138.50999
29.299145 39.716675 136.12566
29.58049 38.670746 134.69292
29.859436 37.487961 133.23453
30.32531 35.630585 130.8295
30.351768 35.601585 130.75534
30.354496 35.516174 130.72192
34.096218 4.1441193 76.765236
32.30455 27.831192 120.67821
36.209545 3.9423676 83.084267
35.590912 17.455696 109.70063
36.804726 15.852509 109.98554
37.609333 14.672424 110.1916
37.966778 14.078445 110.26834
40.847347 3.4663544 97.043098
40.555096 10.488693 110.89796
42.601009 3.2911987 102.24525
43.512989 6.1878815 111.61765
44.6618 4.1999054 111.22556
3.8660278 61.813934 100.86096
4.1722565 59.11274 95.936035
4.5387497 61.219177 101.76965
4.6351089 61.048401 101.85228
5.1125221 55.148148 90.983498
6.1471863 51.031342 85.644287
6.8637695 48.206535 81.995911
6.3959808 58.805832 102.59818
7.7942047 44.670319 77.237526
9.2236481 38.830086 69.821541
9.5383301 37.606659 68.205154
9.885952 36.240601 66.415688
8.8689156 55.289825 103.1895
11.834904 28.54554 56.373913
12.5979 25.491577 52.660713
8.5277328 76.126007 146.16211
13.106148 24.75473 52.78437
9.7821808 71.12233 139.72815
11.848232 51.005295 103.92464
10.75914 67.215836 134.63914
11.453865 64.627914 131.14241
11.784264 63.263229 129.38193
11.249222 74.633133 151.74686
12.860168 58.835243 123.83427
14.616821 47.093285 104.75356
14.119038 53.830887 117.33929
14.711441 51.564064 114.30573
15.287712 46.452843 105.35884
15.959557 46.190773 107.04248
14.602798 70.749817 154.45959
16.703976 68.339645 156.14743
18.672138 66.081703 157.72858
21.860168 62.368599 160.31076
27.156906 4.8367157 56.220127
24.327633 58.735718 160.60176
25.815468 53.382751 154.09454
26.524555 50.538437 150.4295
27.101933 48.261635 147.41283
29.23333 27.538116 110.77412
27.859798 45.244308 143.5015
29.366947 27.556259 111.02036
31.943665 4.3562012 70.595627
29.161461 40.016365 136.81441
29.837536 37.394638 133.34335
33.305931 4.2164917 74.903473
30.932594 33.066208 127.65733
30.991428 32.769577 127.38007
31.908527 22.518707 108.80492
31.626125 30.266655 124.11063
31.658352 30.157761 123.94938
32.052803 28.542664 121.85951
32.150452 28.133163 121.35015
32.457981 26.98114 119.8243
35.240322 4.0355072 80.478683
37.294201 14.936447 110.11508
39.541061 3.6014557 93.564987
41.117683 3.4313202 98.434593
42.430603 7.5390472 111.35446
44.304893 3.1117859 107.97619
44.399902 3.112442 108.24786
44.601059 4.2078094 111.22643
4.0393982 59.294342 96.531685
5.0224953 55.349686 91.40744
5.1566772 54.838196 90.720848
5.5440178 53.212189 88.700012
5.6656075 52.904907 88.160896
5.7918282 52.240189 87.424858
6.7472839 48.489952 82.507744
8.3627548 42.120239 74.186432
8.4698868 41.680641 73.672691
8.5788345 41.263855 73.114838
10.659904 32.905357 62.312996
10.962559 31.735832 60.802776
12.261192 26.635956 54.076241
8.5147705 76.042206 146.19394
8.571785 75.811012 145.89859
9.2941208 72.960526 142.21979
9.1781693 76.690697 149.72966
10.657639 67.55275 135.18813
14.551392 22.596024 53.136055
12.323135 50.156616 104.04031
11.038452 65.933495 133.15343
11.233299 65.292145 132.22525
11.458893 64.272285 131.02943
12.759132 49.636032 104.1463
15.156197 21.68454 53.283234
15.289791 21.492264 53.326019
10.936317 74.83181 151.56696
13.88324 54.557022 118.45853
13.670521 71.648727 153.78749
17.146194 67.700752 156.55931
22.700478 11.020218 55.118568
24.209171 8.9233551 55.485558
26.219082 5.9719543 55.984901
23.256557 60.38353 160.98395
29.352631 4.6135101 63.018597
26.642643 49.915039 149.78033
26.970039 48.646179 148.09964
27.47644 46.567146 145.42722
29.234272 27.564178 111.27501
31.325043 4.4221039 69.19442
29.58004 25.815315 108.50532
30.076096 27.123276 112.93216
29.372494 39.003952 135.6806
29.622986 38.017853 134.3907
30.795547 33.348083 128.29628
31.533928 30.463043 124.49967
31.763866 29.525124 123.34972
31.904953 28.850571 122.54976
32.02327 28.51712 121.9748
32.31839 25.264542 116.28568
34.214161 4.1298676 78.033257
32.36982 27.13681 120.1861
32.573326 26.218506 119.1078
36.076519 3.9340973 83.536644
36.160797 16.257088 109.83958
36.833931 15.317909 110.00333
37.887951 3.7526703 88.946243
37.463177 14.366425 110.14616
39.901558 11.069534 110.74953
41.673779 3.3708954 100.44393
41.8204 3.3662109 100.882
41.921181 3.3445282 101.29826
43.059902 6.5788727 111.5179
44.477489 3.1039124 108.81071
4.0567551 58.952469 96.328796
4.7874565 56.235245 92.650009
4.5438309 60.86441 101.78571
5.8143883 51.91394 87.247177
6.2214088 58.643173 102.55602
7.5512314 45.120605 78.314896
8.3584213 41.835403 74.17305
7.0586281 57.388199 102.74947
8.9454117 39.438354 71.085449
9.5447617 37.264557 68.08989
9.5978241 36.93869 67.743744
10.104156 34.864006 65.115318
11.420753 29.698746 58.382851
9.7365723 70.962112 139.87492
9.8202209 70.528107 139.41702
10.034065 75.700378 150.88776
12.689873 59.167717 124.58105
13.588852 55.66925 119.96236
14.0121 54.009201 117.82702
14.305325 52.785881 116.25667
17.487122 18.195168 53.850437
17.779266 17.866806 53.921444
15.959999 45.807083 107.22343
18.950062 16.130981 54.206329
14.450745 70.598953 154.5058
19.66597 64.578712 158.71472
27.13327 4.8308716 56.752365
24.15424 58.672066 160.8414
25.135082 55.749023 157.47464
25.130199 55.60215 157.4567
25.528961 54.069733 155.4556
25.830048 52.996811 153.9343
26.44313 50.371643 150.6799
27.026714 48.221748 147.7556
29.018414 26.555237 108.83341
27.312515 46.907829 146.23492
27.432011 46.576859 145.61316
28.519135 42.265099 140.04942
29.589443 37.894005 134.45456
30.001476 36.354462 132.39676
31.266705 23.143082 108.64899
30.597034 33.853615 129.28951
30.765812 33.103012 128.35548
30.998974 32.268219 127.21898
34.161201 4.1232452 78.015259
32.846069 20.81662 109.023
36.613323 3.884201 85.592781
37.888737 3.7565765 89.3918
37.485928 14.175308 110.16212
39.107632 3.625351 92.966782
39.152802 3.6307678 93.108826
42.254654 3.307724 102.54425
42.719162 6.8222961 111.42491
43.761879 3.1637726 107.26611
44.488873 3.3249359 109.98186
3.6417084 61.345619 100.33199
4.1604156 58.401665 95.758041
4.5418282 56.882065 93.789284
4.7873878 56.019531 92.594353
4.9798126 55.249031 91.600143
5.1567001 54.41745 90.654198
5.863945 51.557617 86.992706
6.5746651 48.760284 83.290535
6.7343216 48.09066 82.457733
6.8122482 47.836136 82.112556
7.8400421 43.713326 76.800171
10.448799 33.375175 63.348938
10.774338 32.107269 61.633598
12.423687 25.457756 53.142445
10.691185 52.186554 103.63322
10.848869 51.947296 103.6716
8.7829208 76.700912 149.17615
9.1484718 72.983139 142.82697
9.4250336 76.116241 150.3179
10.116951 69.22998 137.85533
14.647793 22.042091 53.159832
11.4907 63.804581 130.77689
11.964577 61.818176 128.26273
15.635521 20.692947 53.400078
12.524704 59.629883 125.42538
14.154869 47.206512 104.52092
13.54805 55.52533 120.09351
14.733162 46.415009 104.85928
14.875313 50.295563 113.25768
17.944939 17.380119 53.972237
18.204124 17.091583 54.035229
15.78949 46.594254 108.52365
15.50869 69.209366 155.43527
22.422031 10.979904 55.05117
25.306358 6.9954681 55.763065
21.339951 62.508293 160.1257
27.256126 4.811142 57.665443
27.533146 4.7846069 58.404228
27.813614 4.7556305 59.306351
28.151291 4.7242737 60.133518
28.198372 4.7151642 60.596428
23.676235 59.358658 161.11423
23.860809 59.085403 161.04442
24.685089 57.304779 159.7359
26.868187 48.610977 148.51099
27.101276 47.648178 147.29903
28.018696 43.905167 142.49825
29.056381 39.793564 137.19043
32.857716 4.2475586 74.580208
32.863022 4.2587433 74.472168
30.453667 34.162247 129.91884
30.569378 33.771805 129.38242
31.809334 22.022339 108.771
33.425915 4.2005157 76.288544
32.079727 27.734451 121.58131
32.564766 25.02063 117.48325
32.649891 25.175095 117.88916
35.220879 4.017746 81.868988
35.772701 3.9647827 83.347435
35.852589 3.9582672 83.475815
36.918209 3.8481598 86.907295
36.97142 3.8363495 86.806297
37.824673 3.7501068 89.411995
39.460865 3.5921631 94.59774
39.610954 3.5678101 94.994926
39.923977 3.5480042 95.817986
43.248638 3.2102509 106.09579
3.5789261 61.128708 100.08227
4.3179092 57.634468 94.951439
4.8629837 55.436356 92.088509
5.0308533 54.750771 91.260223
7.0831451 46.447472 80.634071
7.6908417 44.163544 77.490334
8.1291046 42.320587 75.203056
9.8241692 35.68187 66.525955
11.24234 29.914551 59.132858
11.867466 27.402275 55.943085
8.4277267 75.725014 146.51367
8.6551971 74.874275 145.31137
9.1635132 72.707405 142.69342
9.8892097 69.86998 138.96152
11.596733 50.67511 103.864
10.022572 69.287689 138.21741
10.291428 68.180695 136.82037
10.391418 67.81572 136.31288
11.326439 64.131699 131.49728
12.7971 58.399368 123.9391
12.909813 57.748154 123.30495
16.679428 19.091263 53.664436
13.597923 55.108932 119.77966
13.682358 54.820755 119.35629
14.3964 46.619102 104.63093
14.93692 49.822624 112.92325
15.025406 49.45459 112.46252
15.774353 46.422852 108.5417
15.841682 46.150909 108.23576
22.288376 11.006927 55.029068
24.730465 56.782181 159.4556
25.896374 52.197861 153.41077
25.983658 51.803711 152.99078
26.536057 49.66188 150.11215
30.401104 4.4911652 67.423363
26.773674 48.754997 148.93857
30.659115 4.4654694 68.183128
27.171303 47.060684 146.815
27.653885 45.089508 144.31152
31.245773 4.4166412 69.941544
28.383942 42.256493 140.60533
30.028648 24.449753 108.34816
31.757275 4.3542175 71.554398
28.842022 40.491005 138.25635
29.30748 38.545151 135.83011
32.267979 4.3104095 73.277176
31.586334 22.268494 108.72709
31.512566 29.838211 124.42588
31.966728 25.010391 115.97601
32.012676 27.895729 121.89998
32.829727 20.438675 109.02963
35.656986 16.453491 109.71742
39.11623 11.524612 110.55901
43.611683 3.1695099 107.50177
44.248272 3.347229 109.93995
3.5435753 60.881348 99.976799
4.3617821 57.126846 94.638672
4.4498367 60.444351 101.72496
5.4980927 52.57605 88.724716
6.5488548 48.451805 83.317108
6.8537292 57.111862 102.70007
8.2878876 41.622086 74.408928
8.7724686 39.54628 71.870071
7.4365768 56.43956 102.85202
10.010021 34.624847 65.484558
10.844604 31.446419 61.214703
8.2872696 76.05571 147.23047
13.036037 23.928894 52.768047
9.3572235 71.810249 141.61844
9.4122391 71.523697 141.317
9.3243561 75.949203 150.327
10.205513 68.304825 137.20726
10.820824 65.978104 134.10611
11.56765 62.975952 130.24434
12.622749 58.706268 124.73852
13.169624 56.594696 121.97575
16.371624 19.196091 53.579521
13.763184 54.299789 118.88755
14.702332 46.070984 104.84721
14.937229 49.449677 112.78272
18.21389 16.537567 54.027744
19.111759 15.406708 54.256355
19.742271 14.494041 54.409752
20.788975 13.042953 54.654087
17.950817 66.21199 157.50989
19.544865 64.303894 158.83154
21.940083 61.558441 160.71027
27.425655 4.7934418 58.960304
27.817631 4.7533417 60.193825
29.416328 4.5832977 64.959595
26.661148 48.872185 149.43358
26.93832 47.845032 147.98029
31.192032 4.406311 70.199272
28.356834 42.256058 140.71716
28.97588 39.683617 137.45178
29.06575 39.285919 137.02017
29.132492 39.166275 136.67102
32.418896 4.2809906 74.041916
29.747135 36.606232 133.51216
32.819656 4.2423401 75.129829
32.789951 4.2424927 75.248589
30.309895 34.422546 130.62253
30.347389 34.165527 130.40109
30.427433 33.890724 129.99934
31.719719 25.105148 115.5917
31.75668 25.064705 115.65117
31.29567 30.363403 125.50011
32.613338 25.051849 118.25942
36.979576 3.8301392 87.961594
39.381882 3.5929413 94.885834
40.124344 9.9912109 110.80434
42.605732 6.3229828 111.39783
43.977962 3.14711 108.85519
3.6756973 60.843964 100.50996
3.8483887 59.059479 97.259392
4.0664291 58.099144 96.110214
4.3030701 57.262222 94.916183
4.6612778 55.682632 93.027687
7.0970078 46.054855 80.432465
7.3777237 44.953705 78.987991
6.4773788 57.564644 102.60857
7.9188766 42.844894 76.24955
8.4476624 40.700928 73.467911
9.0438614 38.222855 70.363876
9.3496895 37.045059 68.838348
10.247643 33.44252 64.19696
11.897209 26.953262 55.661316
8.2509193 76.123123 147.64185
8.2571335 75.985573 147.43964
8.6471367 74.323242 145.20175
8.5583572 76.361168 149.03387
8.7140427 74.126823 144.91714
9.461525 71.211143 141.03252
13.594784 22.945618 52.914417
9.8843651 69.393311 138.858
10.637901 66.567841 134.97174
14.733521 21.299767 53.19146
12.545147 48.834534 104.08483
12.12101 60.485733 127.31403
12.609798 58.625107 124.77096
13.478981 55.168343 120.28611
13.918568 53.310593 117.98952
13.049667 71.578789 153.69348
17.996178 16.797401 53.985107
15.765114 44.942123 106.34167
15.767357 45.999161 108.46075
22.329609 10.599899 55.029091
25.28484 6.3519592 55.758369
26.157612 5.1628571 55.960369
21.682285 61.696236 160.62656
25.265255 54.304413 156.60522
29.503624 4.5823669 65.382248
28.23439 27.274643 109.47785
28.708984 26.143593 108.42989
27.04105 47.188766 147.38602
27.314022 46.225533 146.05179
27.682552 44.532074 144.04863
29.463688 27.077751 112.92677
28.45195 41.594772 140.11044
31.680233 4.3632965 71.961166
28.718441 40.508072 138.72845
32.730816 4.2565002 75.214508
30.234482 34.442825 130.89655
30.674187 32.74971 128.64215
30.70911 32.520309 128.43854
31.822113 28.197311 122.76498
35.107841 4.0175171 82.379623
37.80159 13.048004 110.23945
39.129093 3.6010437 94.659653
42.640522 6.2413788 111.41662
43.507301 4.7095642 111.24316
43.592804 4.7077637 111.27698
3.6345177 59.620377 98.287834
4.2821121 56.958313 94.923904
4.4599762 56.274429 94.012245
5.1836853 53.485878 90.25872
5.2386055 53.289703 90.023651
6.6998329 47.301651 82.395592
6.84758 46.769775 81.690216
8.0787659 41.885956 75.319489
7.5456848 55.806732 102.87895
12.101265 25.980637 54.566647
12.455776 24.56105 52.734909
12.442638 24.474976 52.76683
12.578484 24.16568 52.657051
8.2939758 75.526672 146.97189
9.0029449 72.876221 143.35754
9.2256355 71.831108 142.16718
9.4999619 70.882713 140.78868
9.6157455 70.270065 140.15179
10.723946 65.885887 134.48216
11.005638 64.735962 132.97849
12.114479 60.47213 127.33746
13.709976 47.095367 104.36829
11.658211 73.133255 152.60875
13.254456 55.83596 121.42879
11.856934 72.82296 152.79953
14.60297 50.45195 114.46522
15.383862 47.325035 110.38783
15.635067 44.950272 106.00915
15.919044 45.197884 107.47443
15.919548 45.117233 107.3028
14.566544 69.749825 154.96948
17.509548 66.379295 157.33078
22.41848 10.276428 55.061157
19.117153 64.431755 158.67569
27.733204 4.7411957 60.717579
23.444508 59.194077 161.33946
28.820015 4.6339111 63.84832
26.215672 50.280426 151.63794
26.308872 49.818352 151.09076
26.418491 49.351501 150.51711
26.533073 48.927597 149.97668
26.973095 47.271515 147.68802
27.562393 44.946022 144.69461
27.654778 44.492409 144.15303
27.982876 43.327591 142.53891
28.392437 41.634033 140.40891
29.400169 37.621689 135.20798
29.882229 35.700935 132.67712
30.016998 35.188904 131.98796
31.012142 31.051842 126.80669
33.620453 4.160965 78.343613
32.172962 24.654877 116.7355
32.051407 26.918228 121.48664
34.355324 4.0880585 80.486557
36.409225 3.8685608 86.897018
36.604366 14.606354 109.93802
39.90097 3.5167847 97.475708
40.693691 3.4391174 99.715294
41.050121 8.2789154 111.02988
41.671761 3.3414764 102.6124
42.736408 3.2432404 105.91179
43.484718 3.169632 108.0481
3.5197754 59.927231 98.86232
3.8770256 58.521988 97.001816
5.1279297 53.540802 90.50312
4.9999084 59.240646 102.14021
5.8554916 50.499588 86.753304
5.5822029 58.448051 102.38421
7.4662743 44.229385 78.434586
7.8332634 42.658035 76.512024
8.4834366 40.022797 73.144371
8.8432846 38.648911 71.345032
7.8211594 55.233673 102.94611
9.526741 35.994431 67.834953
9.6921158 35.287399 66.968903
9.9395638 34.325485 65.655258
10.263977 32.923485 63.994923
9.9715805 52.105049 103.46933
8.5238495 76.148453 149.14636
9.9040184 68.953506 138.66278
10.223701 67.606102 136.951
10.336338 67.316795 136.41093
13.117607 47.651398 104.2244
12.316208 59.357895 126.21567
12.365372 59.095779 125.94476
15.592144 46.396637 109.28723
15.895638 44.753281 107.13577
20.566422 62.691414 159.86874
22.132294 60.814766 161.09586
28.447647 4.674942 63.197472
29.412075 4.578537 66.06485
25.525314 52.828888 155.10638
25.565247 52.553864 154.91278
27.671062 44.292145 144.03387
31.039703 4.4145966 70.992775
29.312256 27.022949 112.97987
28.046757 42.773087 142.0889
28.199806 42.129745 141.29019
28.598194 40.504242 139.26645
28.825058 39.720184 138.08397
29.60862 36.604797 134.08371
29.797272 35.804131 133.05466
30.715313 32.210495 128.37515
31.813206 27.70665 122.67456
32.124405 26.424728 121.01476
32.197586 26.18634 120.65079
34.406395 4.067337 81.049057
35.475346 3.9571991 84.467072
38.098019 3.7034607 92.378891
39.224426 10.656479 110.5756
40.031956 9.4898529 110.78236
40.575737 8.7878571 110.90431
42.63306 3.2398987 105.87247
43.57951 4.022934 110.74506
3.5861816 59.387772 98.384567
3.6685028 59.063225 97.960526
5.1944809 53.029778 90.138405
5.6800423 58.090889 102.41508
8.2444382 40.745438 74.361053
11.936314 26.191696 55.344967
8.8176613 72.992416 144.15271
13.379021 22.82901 52.862263
9.9706497 68.468864 138.26207
10.987869 64.326218 132.94559
11.616753 62.052032 129.80203
11.79174 61.264572 128.83287
12.97237 47.789978 104.18912
13.917133 52.836815 117.87261
14.141815 51.965889 116.71916
14.648369 49.960945 114.1505
15.387295 44.754471 105.60846
18.049892 16.061806 53.998695
15.564423 46.10125 109.32507
18.773418 15.075912 54.17469
19.025894 14.777466 54.225769
19.196533 14.40863 54.277664
14.745018 69.261192 155.24829
20.866516 12.115082 54.673592
21.89262 10.649384 54.923233
22.590782 9.6743622 55.103359
20.190296 62.906448 159.67859
28.339439 4.6693268 63.346512
25.845074 51.304321 153.3909
27.947681 27.356415 109.56154
28.207909 26.345123 108.42617
30.036694 4.4985504 68.472931
26.461529 48.781296 150.19159
27.360596 45.28476 145.57303
29.525879 36.7089 134.45229
32.641354 4.2507782 76.025253
31.197269 21.866394 108.63319
31.057846 30.503082 126.47566
31.037594 30.511276 126.56144
31.247536 29.869568 125.57082
32.029419 26.64624 121.46434
32.462944 24.841011 119.16664
36.129398 14.876328 109.82278
42.482246 5.8824005 111.34065
42.666233 5.4293671 111.31413
43.463127 4.0314331 110.70339
4.3052902 56.244415 94.60054
4.3993378 55.904556 94.166725
5.6999969 57.879898 102.42008
7.9162979 42.006104 76.000122
7.1816559 55.762268 102.78055
12.022808 25.622581 54.79776
8.3445282 75.845566 148.88992
8.4838104 75.822021 149.31772
13.733479 22.047157 52.948719
10.32629 66.766281 136.30971
11.008606 64.104767 132.80255
11.263424 63.108376 131.5347
11.835121 60.906708 128.56094
11.974323 60.217224 127.85003
12.155506 59.456085 126.86205
12.366035 58.659668 125.82893
12.596687 57.890167 124.67712
12.584549 57.743729 124.64668
12.713711 57.352753 124.05464
13.855354 52.778633 118.15514
15.44043 46.406105 109.95862
13.478088 70.551903 154.32616
15.722157 44.294914 106.3503
21.856148 60.834854 161.07373
23.165218 59.167244 161.51904
24.480579 56.461357 160.3616
29.00325 4.6100464 65.535187
24.930672 54.791824 158.0704
25.567501 52.254074 154.78317
28.251537 25.965508 108.22568
28.308811 27.523827 111.81541
27.209621 45.65976 146.29364
27.580441 44.297401 144.4519
27.634079 43.893349 144.12573
31.210373 4.3893585 72.099701
28.008194 42.498444 142.21945
28.170803 41.740891 141.35168
28.533913 40.391296 139.46004
28.78603 39.39164 138.15991
29.472961 36.703186 134.6693
31.191532 29.775314 125.73508
31.398933 28.909218 124.65416
32.027306 26.547592 121.49004
32.312759 25.439865 120.02433
34.800755 4.0133514 83.29142
35.267574 3.9663849 84.699875
41.494209 3.3443298 103.17853
42.247238 3.2636566 105.81381
43.269215 3.1878662 108.63103
4.4774551 55.488327 93.736267
4.7751923 54.150284 92.160065
4.8060875 58.821625 102.04248
6.019722 49.324623 85.770607
6.6182938 46.945007 82.68232
6.6260643 46.92424 82.602295
5.7479706 57.583015 102.44221
6.8024063 46.180161 81.681313
6.8711243 45.864662 81.315781
6.8793297 45.726921 81.246201
8.3998337 39.888412 73.497246
9.0838318 37.040726 69.892334
9.2493286 36.409531 69.045395
9.4697952 35.496109 67.94091
7.9072952 54.56311 102.95722
10.970955 29.496681 60.145016
9.0519562 52.928513 103.23569
11.240528 28.38311 58.785862
12.072212 25.133224 54.466915
8.1578522 75.541702 147.9743
8.2362976 75.033524 147.12473
9.1811066 71.2388 142.24004
13.452454 22.252579 52.870209
10.185886 67.248367 137.01437
9.5865097 74.865768 151.16132
10.378414 66.516388 136.02969
11.326965 62.708786 131.16878
10.560844 73.815559 152.02556
11.937496 60.137482 127.93881
12.142273 59.345947 126.93069
15.730938 19.038559 53.4245
14.662231 45.027191 104.82867
14.181854 51.207108 116.35711
14.3522 50.68454 115.51836
14.342644 50.67057 115.59673
14.887352 44.738388 105.03181
14.876629 48.53331 112.79533
15.192951 47.336716 111.22167
15.680367 45.412415 108.71034
19.440384 13.793762 54.32692
24.346245 6.7419281 55.530777
25.525124 5.119873 55.807243
28.448326 4.6513824 64.189697
25.270325 53.26149 156.31387
25.626194 51.857964 154.4807
25.629444 51.779877 154.40445
25.774853 51.120621 153.67575
25.910652 50.659454 152.99551
26.030636 50.125999 152.36185
28.325989 25.521873 108.06937
27.513557 44.188461 144.69984
29.244026 24.322586 108.15826
30.933769 4.4003448 71.766159
28.349068 40.959206 140.37042
28.750046 39.281219 138.3224
28.940586 38.635002 137.32562
29.3279 37.053223 135.35901
29.379475 36.894356 135.06229
30.069298 34.116783 131.53659
30.202766 33.497818 130.78253
30.748203 31.43811 127.99654
30.72575 31.327148 128.06049
31.247372 29.344299 125.4353
32.201015 25.595459 120.52599
32.294102 25.094528 119.96924
32.380569 24.19635 118.25074
34.29353 4.0711517 81.999008
36.693001 13.741394 109.96017
38.505394 3.6448822 94.901726
38.818138 3.6073761 95.552948
40.715446 3.4144745 101.43044
40.850796 3.403595 101.63754
41.974033 3.2977753 105.23753
42.773308 3.2187805 107.54605
43.313961 3.5770111 110.07858
4.218399 56.13343 94.973122
4.9137802 53.543488 91.430557
