ply
format ascii 1.0
comment PCL generated
element vertex 1572
property float x
property float y
property float z
element camera 0
property float view_px
property float view_py
property float view_pz
property float x_axisx
property float x_axisy
property float x_axisz
property float y_axisx
property float y_axisy
property float y_axisz
property float z_axisx
property float z_axisy
property float z_axisz
property float focal
property float scalex
property float scaley
property float centerx
property float centery
property int viewportx
property int viewporty
property float k1
property float k2
end_header
49.168076 9.8105583 -2.2453156
84.935455 28.685944 -6.24646
107.28674 49.532104 -8.6905823
30.479446 12.435471 -0.077133179
78.621216 21.866489 -5.5617981
55.366501 17.861675 -2.9090118
22.934875 5.6822815 0.74964905
48.180946 23.663982 -2.0455933
23.369598 10.020111 0.72653198
41.235817 10.236736 -1.3293304
84.891922 28.476036 -6.2427521
57.544945 16.472889 -3.1684723
101.99586 36.116734 -8.1647186
69.8414 16.768467 -4.5825195
82.309509 15.629955 -6.0252075
66.606888 23.444725 -4.1686096
49.926468 9.4088249 -2.335144
104.69298 48.085182 -8.4009247
52.593025 8.0795021 -2.6504211
54.735458 23.081371 -2.8039246
73.845901 14.211971 -5.059494
77.926666 34.133579 -5.4055939
67.110481 7.148098 -4.3278198
57.502655 7.8272018 -3.2173157
50.226173 14.970112 -2.3350983
107.56897 23.087246 -8.8873749
51.75769 24.648357 -2.4513245
82.19043 1.0362053 -6.1021576
94.952728 33.530239 -7.3697968
53.91729 11.884003 -2.7792816
57.564827 23.152969 -3.1292725
101.52069 13.205215 -8.2523346
75.718056 1.076889 -5.3566589
74.564812 14.129211 -5.1427765
47.88398 4.7189178 -2.1291046
99.592682 45.977123 -7.8267365
27.607529 2.8891487 0.19425964
70.346642 26.308437 -4.5814209
77.96022 21.818943 -5.4859619
91.663498 2.2055893 -7.1856689
15.851601 2.0417709 1.5426331
84.254929 40.303795 -6.095932
94.360245 6.2222328 -7.4712372
96.29866 39.094429 -7.4902039
88.001892 25.676949 -6.6182404
55.56002 10.440052 -2.9774017
32.760765 18.714954 -0.30079651
102.65665 45.008701 -8.1855621
39.265976 17.222599 -1.0590973
101.7065 31.896385 -8.157608
73.704422 26.311638 -4.9680328
88.609451 6.5089874 -6.8072662
32.244186 9.7351952 -0.29710388
108.0126 25.119793 -8.925827
103.85889 19.107788 -8.4848938
88.452042 16.903664 -6.7245789
89.583878 31.798538 -6.7623596
72.074417 28.325504 -4.7678223
96.72821 40.302044 -7.5321655
1.5931664 2.2628937 3.1857758
95.073227 42.596218 -7.3273621
41.028976 8.107975 -1.3187256
99.08168 20.204189 -7.928009
61.371483 25.078644 -3.5556183
109.15013 -0.35166931 -9.2150421
75.318726 6.2537537 -5.2785034
16.740219 1.766819 1.4385986
101.72412 2.1898689 -8.3441925
37.688568 14.973526 -0.89143372
78.009186 5.0989189 -5.5954895
81.636887 30.973801 -5.8524323
79.739761 19.529076 -5.7050934
51.866318 5.8842812 -2.5803986
62.986702 22.744633 -3.7561035
106.71841 4.9305496 -8.9022369
3.0636215 3.404892 3.0235443
90.130447 3.1276932 -7.0034332
19.611694 7.8125763 1.1455078
94.13269 29.051296 -7.3032074
63.747658 31.727318 -3.7879181
107.2675 15.350117 -8.9007263
90.705978 22.389446 -6.9500275
102.59778 21.005119 -8.3278961
85.937134 26.769794 -6.373703
74.907776 7.7235832 -5.2220612
59.763176 7.2728958 -3.4810486
109.84486 44.178879 -9.0184021
109.57774 24.349735 -9.1108246
83.73645 10.661709 -6.2203827
19.154892 3.548748 1.1716461
102.283 42.951107 -8.1553192
47.836479 23.324883 -2.0080414
36.787605 4.3754654 -0.85353088
29.167603 1.4186821 0.0054931641
55.903015 21.295727 -2.9494629
82.376648 8.9761162 -6.0742798
69.148598 27.577023 -4.4355774
60.601227 16.00272 -3.5233002
80.327911 11.202534 -5.8245392
86.117462 4.7299423 -6.5313873
34.841644 3.64534 -0.63401794
104.88068 31.248398 -8.5271149
71.578743 4.6894913 -4.8575897
54.885811 -0.16877747 -2.965683
44.445511 11.71664 -1.6896973
43.26281 13.43972 -1.5428162
96.248184 25.307663 -7.5700531
70.456055 19.835655 -4.6342316
41.27636 22.207088 -1.2596283
86.006256 2.3267899 -6.5335236
78.314972 30.6628 -5.4718781
52.483887 14.197678 -2.5998535
41.077095 9.4719505 -1.3157959
35.640732 5.1971245 -0.71638489
71.919815 1.0226784 -4.919632
91.677795 28.664566 -7.022934
59.520592 27.942936 -3.324707
12.356052 5.7949753 1.9684296
28.373627 -0.33666229 0.085998535
21.838181 4.749649 0.87013245
47.866982 17.545689 -2.0474548
47.926529 2.9099541 -2.1452332
61.290047 14.657482 -3.6109772
81.758087 1.8818092 -6.0471344
90.815948 23.152401 -6.9579468
14.460541 3.2900352 1.7105408
47.970276 16.373909 -2.0666199
69.780258 24.192745 -4.5293427
99.762665 0.35824966 -8.1297302
86.514771 19.190022 -6.4873199
109.93701 12.558914 -9.2254486
57.567871 5.4740143 -3.2394562
77.36264 18.749973 -5.4362335
27.629486 12.89782 0.25390625
104.94241 2.9467392 -8.7100677
105.55116 43.869007 -8.5259399
64.015915 8.5158348 -3.9630127
61.933128 28.53875 -3.5988007
19.679947 11.104385 1.1580963
25.372253 5.5638924 0.46824646
105.28644 9.8760757 -8.706604
87.767075 18.007893 -6.6388397
84.160141 18.181973 -6.2224579
77.133804 19.266468 -5.406662
62.598778 12.883312 -3.7727051
65.061203 4.0330696 -4.1112213
97.744522 38.227043 -7.6620789
109.29953 12.104675 -9.1548615
39.248734 16.942299 -1.0588684
82.220535 24.701527 -5.9586029
103.55635 21.291039 -8.4364929
105.45042 22.307301 -8.6482697
97.561523 19.570316 -7.7569122
87.332413 15.120342 -6.6067352
20.573486 0.68335342 0.99047852
90.923553 40.240192 -6.8641968
85.660797 18.407074 -6.3938446
31.813072 17.802486 -0.19734192
106.5282 1.6233253 -8.9008789
19.852371 5.4914513 1.1033936
72.398903 13.008091 -4.9003448
95.599457 1.6804733 -7.6421356
66.792168 17.584431 -4.2263336
90.605347 12.034874 -7.0027618
101.81305 44.734077 -8.0901337
83.501205 12.94706 -6.1790924
104.95187 39.889221 -8.4816589
89.310867 14.462017 -6.838623
92.543945 24.519531 -7.1484222
88.37323 20.04121 -6.6959991
75.103569 36.162708 -5.0679321
107.52754 26.852787 -8.8592072
92.756241 22.914268 -7.1828461
57.82196 28.427761 -3.1261139
107.74416 36.498665 -8.824234
94.467377 32.332901 -7.3213501
93.603256 36.52446 -7.195816
107.55806 48.108353 -8.7306824
41.246094 9.2503967 -1.3366394
56.379547 16.199486 -3.0359955
4.8339233 2.2590446 2.8125916
94.476501 11.663208 -7.4508209
101.47984 23.649776 -8.1827545
59.40332 27.521526 -3.3138275
91.387604 32.380306 -6.9664459
100.93198 31.649925 -8.0699615
86.763092 28.203972 -6.4598999
100.35193 2.5678139 -8.1838531
107.71692 46.52375 -8.7588043
57.611092 4.3742561 -3.2512665
84.33255 25.772789 -6.1951599
80.882278 14.888634 -5.8654938
86.501724 34.305645 -6.3919067
71.788193 1.9207268 -4.8989105
101.39276 17.994434 -8.20784
88.536942 11.777004 -6.7662048
41.940216 3.6051292 -1.4516296
48.646355 23.390598 -2.1008911
90.713684 19.095657 -6.9713898
47.563286 21.684097 -1.9867706
-4.278511 0.83795166 3.8530121
109.55614 22.764965 -9.1181793
43.55471 18.323002 -1.5460968
93.953049 32.768105 -7.2594299
74.901512 21.570457 -5.1353302
100.14137 29.013268 -7.9953156
34.626892 2.4957466 -0.61642456
103.46245 14.852833 -8.465683
89.457382 29.06319 -6.7647858
88.008514 34.131218 -6.5664825
58.649544 23.890556 -3.249588
97.598389 44.579514 -7.6058044
101.86885 24.283836 -8.2236023
82.332413 24.085228 -5.9753265
75.675125 36.099819 -5.13414
87.538116 9.6350899 -6.664505
6.9278908 3.6968346 2.5803986
102.87041 13.465076 -8.4061279
98.182358 44.697594 -7.6723022
8.6377792 7.2092896 2.4053497
83.698227 10.589386 -6.2164307
6.4165268 3.9260674 2.6407166
45.922104 13.092552 -1.8511658
90.929764 15.870094 -7.0162964
49.795647 8.4230995 -2.3262024
51.39325 19.087059 -2.443924
50.776009 6.3314056 -2.4520721
93.319016 33.044579 -7.1847076
93.620163 8.0420837 -7.3747101
71.321152 28.247108 -4.6815796
68.283241 19.668022 -4.3850708
104.4153 46.329262 -8.379837
101.7793 22.612099 -8.2236633
4.2579689 0.12452698 2.8656464
101.01515 21.793781 -8.1407776
95.120514 34.950729 -7.3802948
80.684357 34.177464 -5.7228699
105.76875 27.956409 -8.6498413
63.52755 2.4698753 -3.9443359
56.931168 12.519939 -3.1223602
72.85305 24.61108 -4.8805695
88.562988 15.587357 -6.7455292
25.472961 7.6322441 0.46949768
99.644226 3.7191467 -8.0951996
73.436607 18.873222 -4.9833984
56.437515 13.066868 -3.0621185
48.804939 19.731239 -2.1418762
31.485825 17.85062 -0.15936279
29.20697 4.8871078 0.022491455
60.953064 5.4707718 -3.6292572
24.090706 9.2555161 0.63874817
91.679153 5.4458466 -7.1673431
95.829727 40.914463 -7.4249115
45.755219 20.200233 -1.7878113
102.52029 3.9911613 -8.4246674
92.938766 16.643883 -7.2428131
8.8207054 3.6596184 2.3622437
23.93499 8.7254524 0.65338135
59.663391 20.85305 -3.3852081
50.498695 19.123299 -2.340683
31.54068 16.355064 -0.17497253
31.908554 1.0471191 -0.31242371
94.730362 14.631962 -7.4615936
73.802994 27.256691 -4.9735107
46.759811 12.686096 -1.9501648
39.133263 1.9478836 -1.1387177
31.350555 16.20623 -0.1539917
47.539101 11.768066 -2.0455933
23.902344 10.554207 0.66850281
22.458427 0.95412064 0.77513123
67.043892 8.1383972 -4.3140106
106.88722 50.060337 -8.6412964
100.23357 16.662079 -8.0826569
15.276001 7.5107231 1.642868
107.14455 25.918835 -8.8209076
94.312881 18.931084 -7.3868256
49.202087 23.707165 -2.1629028
-0.84762192 -0.28948212 3.4509583
12.828339 7.2511864 1.9230957
79.461258 17.983418 -5.6826324
74.005859 24.93137 -5.011322
74.39624 16.293694 -5.1099243
60.73513 19.986519 -3.5139771
107.10399 33.900913 -8.7666626
77.733261 3.0793152 -5.5762482
85.799454 25.630981 -6.3649292
110.18312 39.998718 -9.083313
109.98965 2.9198914 -9.2913818
84.745392 21.289368 -6.2705383
73.840515 13.528675 -5.0631256
105.09187 47.341805 -8.4514771
80.561508 36.710648 -5.6929779
60.940178 7.902504 -3.6126556
63.021454 30.787609 -3.7101288
47.231247 3.6259918 -2.0607147
48.731789 15.856613 -2.1575165
13.029251 2.7780876 1.8721619
45.247734 3.2539139 -1.8346558
43.518509 16.124195 -1.5555878
68.985146 17.155872 -4.4815063
94.535461 19.690006 -7.4077606
16.132591 0.91638947 1.5032806
107.24208 29.663677 -8.8088837
23.404007 13.729 0.74560547
61.811615 5.9817467 -3.7249451
99.215225 33.512802 -7.8607178
108.09523 23.088551 -8.9479675
90.273804 22.205982 -6.901413
73.883774 13.275749 -5.0696716
25.976463 3.144371 0.38365173
89.144562 35.990028 -6.6857452
109.02409 22.78598 -9.0567932
86.230881 15.998432 -6.4744415
97.270386 29.870232 -7.6594086
38.11953 0.20336914 -1.0328369
-4.8428192 -0.40245056 3.9102783
83.955475 12.862083 -6.2319489
108.0752 18.625511 -8.9733734
105.54361 -0.25157928 -8.7991486
67.796165 19.756382 -4.3284454
5.5360146 2.0409012 2.7304077
44.731224 10.868664 -1.7278595
45.004311 8.1159744 -1.776413
81.634521 21.204144 -5.9128571
91.78157 19.755249 -7.0902252
90.098404 35.934254 -6.7959137
20.957092 1.7825584 0.95314026
98.069763 45.027287 -7.6572723
38.982758 6.6361542 -1.0922546
40.532631 16.253555 -1.210968
94.94838 37.265137 -7.3460999
100.50629 6.4296112 -8.1776276
46.842278 19.464245 -1.9175415
33.670731 2.4338684 -0.50669861
77.846344 23.270622 -5.4638367
71.46431 -0.13719177 -4.8744049
103.52988 26.297668 -8.4023438
89.802246 21.050858 -6.8542786
101.392 12.370529 -8.242691
71.571915 -0.49622726 -4.8890228
107.92566 2.0420837 -9.0591888
106.55103 43.958488 -8.6404877
108.92041 37.497128 -8.9534607
83.93486 9.8003197 -6.2485809
57.940643 24.471786 -3.1643524
92.350037 30.465664 -7.0891571
105.29301 27.187271 -8.5998383
21.564507 13.62875 0.95680237
91.029419 28.449406 -6.9496155
57.589851 24.451736 -3.1240997
18.773903 1.9620667 1.2056427
14.812836 5.2533493 1.6821747
84.69545 23.023872 -6.2540131
108.71956 49.291275 -8.8570709
106.71049 28.588608 -8.7543488
82.80191 28.070896 -6.0046234
63.293015 30.74025 -3.7416992
63.653351 5.1687279 -3.9420624
76.344627 9.6300812 -5.3756714
67.973206 32.221359 -4.2714081
88.493256 11.443909 -6.7632446
19.850876 5.2406769 1.102005
71.966415 4.394268 -4.904068
65.788643 20.410988 -4.0932312
63.796371 14.329781 -3.9016113
102.49339 46.524155 -8.1573639
58.651573 24.786877 -3.2442474
41.842979 7.5296288 -1.4160461
31.789688 6.183506 -0.26683044
100.11029 23.266148 -8.0274353
108.95163 19.237293 -9.0704803
-3.1735649 2.844017 3.7382355
102.92004 47.862789 -8.1981506
79.913116 17.873444 -5.7353516
-3.828331 1.0271034 3.8023529
67.818459 10.068977 -4.3912048
7.1267624 6.149395 2.5727386
40.736633 12.683712 -1.2566376
64.137039 1.5442467 -4.0202789
89.055176 34.484394 -6.6847992
102.04022 13.071564 -8.3129883
105.43301 7.1840935 -8.7402191
107.95888 33.207611 -8.8693848
50.998375 20.701313 -2.3884125
16.498642 1.2267189 1.4630585
16.591202 7.8457031 1.493515
83.423111 3.8330803 -6.2267303
97.660797 13.391674 -7.8067322
42.587944 16.278156 -1.4474792
97.621933 16.045094 -7.7857666
41.892326 20.239494 -1.3427582
91.735535 41.059563 -6.9525909
82.416351 1.0574684 -6.1280518
58.415497 26.090168 -3.2089691
94.383835 35.919353 -7.2894592
102.61412 36.543449 -8.2332458
73.265663 5.3923454 -5.0474701
47.823158 3.5815582 -2.1291656
106.75575 19.56004 -8.8156433
34.458923 16.494328 -0.51011658
30.772629 3.4330101 -0.16680908
26.444176 7.5417175 0.3571167
79.677078 9.8253021 -5.7581635
48.094276 4.2974968 -2.1559296
109.55759 0.59004211 -9.2561035
100.74396 15.610836 -8.1479492
69.290672 7.7446899 -4.5751495
107.70465 0.44568253 -9.0436554
68.173172 21.847336 -4.3588715
81.691772 9.8369598 -5.9900818
105.59627 21.530857 -8.6698914
76.595352 26.267033 -5.301178
50.69545 20.465462 -2.3549957
30.81691 16.927658 -0.088058472
58.275589 10.377571 -3.2904663
11.307323 6.9617996 2.0964355
74.675301 23.042747 -5.1001282
67.772362 0.28284073 -4.4466858
99.294495 2.4548111 -8.0627899
60.38385 30.223419 -3.4099426
52.251068 2.4296608 -2.6461639
93.663086 36.111366 -7.2052765
82.766464 24.087997 -6.0252991
104.46765 48.558231 -8.3720398
61.765808 8.5434723 -3.7037506
76.117126 8.7142982 -5.3551483
77.701813 1.2324028 -5.5841217
98.146393 28.682766 -7.7676544
51.598465 4.8966713 -2.5556946
104.19446 20.42709 -8.5153351
110.17674 51.448669 -9.0114441
64.055756 11.104164 -3.9515228
64.442848 23.251389 -3.9206085
59.048027 13.880192 -3.357666
92.798584 14.025604 -7.2429352
104.38889 21.627731 -8.5302582
104.55441 13.581917 -8.5993042
81.965271 34.450863 -5.8686523
60.968979 28.04549 -3.4908447
40.936363 18.334202 -1.2445221
97.545334 26.432377 -7.7124176
74.91568 34.156364 -5.0587616
109.21739 47.499989 -8.9255066
36.534622 18.76828 -0.73500061
95.701248 36.002548 -7.4406281
109.58382 45.295616 -8.9813995
68.037674 23.05125 -4.3357849
44.461128 10.19096 -1.7009735
92.429062 3.456604 -7.266037
108.08681 40.08667 -8.8414001
38.16571 2.2136536 -1.02565
73.034981 34.159039 -4.8421936
68.772842 -0.33785248 -4.5657501
70.652405 12.921909 -4.6997833
11.955448 9.5024185 2.0375824
43.192291 13.775085 -1.532608
31.977341 1.9146385 -0.31495667
72.22509 3.0464821 -4.942215
57.125923 7.9714737 -3.1730499
91.179031 2.5621605 -7.1276703
81.674454 14.810322 -5.9571838
21.549034 5.9148293 0.91065979
93.554611 22.171307 -7.2793884
91.867783 33.008701 -7.0178223
109.61148 10.300827 -9.2019806
50.674515 14.76968 -2.3879852
3.5537262 4.9395294 2.9766541
65.436836 11.993004 -4.105011
109.00739 17.883652 -9.0853119
58.415993 8.5357399 -3.3180695
30.826225 15.913887 -0.095443726
98.591888 3.404911 -7.9759827
107.08936 10.489887 -8.9104004
94.512589 1.3672333 -7.5189362
101.91957 46.338333 -8.0924377
47.967262 6.6285439 -2.1268158
77.911636 36.156071 -5.3913116
64.500351 25.692345 -3.9120941
84.055313 5.0816994 -6.2917633
103.77841 20.312542 -8.4681549
94.289383 22.251411 -7.3634949
55.446999 26.954414 -2.8618011
95.392212 39.459476 -7.3835754
20.220848 7.8993034 1.0759277
61.189644 29.518227 -3.5071106
15.088654 4.5427742 1.6460114
102.79408 35.864902 -8.258194
92.157852 26.256752 -7.0931854
75.845871 14.671513 -5.2869263
84.242966 10.520153 -6.2795868
103.12451 7.933342 -8.4697571
86.759109 28.36533 -6.4584351
45.842484 12.02557 -1.8486481
75.655006 21.806305 -5.2206268
17.953201 9.0700607 1.3442993
48.315598 0.38062286 -2.2057343
28.88781 5.0197372 0.060073853
67.28109 0.70575333 -4.3874969
93.736008 38.740788 -7.1973419
63.185722 -0.052349091 -3.920639
17.937531 11.557499 1.361557
41.490372 17.916904 -1.3109283
107.49019 40.954155 -8.7672882
103.76164 30.760632 -8.4013214
43.089363 4.7236633 -1.5769806
72.80175 29.705894 -4.8430023
22.806702 5.9731789 0.76620483
59.780678 11.136387 -3.4590607
79.275589 5.7566643 -5.7372131
33.392601 0.40407181 -0.48730469
103.39247 34.357922 -8.336441
64.033882 25.435558 -3.8599701
35.508972 4.5657005 -0.70513916
26.044266 8.0422401 0.40626526
100.35226 24.146664 -8.0498199
76.679169 16.471794 -5.3716888
52.434998 0.25748062 -2.6808319
40.447945 10.045879 -1.2397919
71.167557 33.075024 -4.6339111
83.413208 24.051441 -6.0999756
20.002365 13.373478 1.1350708
76.944519 24.052181 -5.3551483
103.8999 19.07262 -8.4898376
70.375626 23.013329 -4.6052399
64.353966 26.687439 -3.8890533
5.7435303 5.8974266 2.7304535
71.3797 24.212337 -4.7133942
75.320862 15.192715 -5.2232208
-0.087802887 4.6542511 3.3941803
30.849449 6.8785896 -0.1542511
80.640961 26.968456 -5.7626495
40.264084 2.9085045 -1.2629547
91.533798 5.210331 -7.1520538
103.78607 48.574715 -8.293457
100.75017 31.275913 -8.0513458
63.078011 20.504402 -3.7805328
64.01609 19.225529 -3.8964996
99.764023 5.2418556 -8.0995331
60.461349 13.241928 -3.5243683
60.698311 25.338055 -3.4765015
33.710419 0.20605469 -0.52513123
3.7128372 6.4151077 2.9674988
26.564102 12.493275 0.37406921
107.6808 49.52536 -8.7360077
26.09668 10.159615 0.41337585
57.301842 2.4135857 -3.227829
80.737061 31.219982 -5.7472992
36.048111 19.73571 -0.67298889
28.133133 8.8886414 0.17100525
43.500206 6.4099426 -1.6138153
37.440674 1.0372543 -0.94946289
97.351059 51.385529 7.1075211
94.452347 51.372581 9.537941
92.942902 51.35545 12.496452
64.091614 51.167671 46.283707
68.233635 51.186508 42.756294
67.914162 51.202141 40.244484
67.613716 51.182316 43.508713
67.722641 51.184692 43.108788
96.479675 51.382526 7.6931686
98.672363 51.39333 5.6905823
83.432953 51.296036 23.228859
80.255966 51.267681 28.201202
70.029022 51.189663 42.044563
98.057266 51.395683 5.3753052
74.746223 51.231216 34.751671
67.442711 51.18235 43.521942
95.511963 51.376518 8.7784195
65.907211 51.165218 46.483185
76.92453 51.259468 29.906616
71.983696 51.211838 38.214867
76.456085 51.256638 30.420784
62.899307 51.167194 46.492714
76.437897 51.259312 29.985291
65.551888 51.178104 44.422127
62.524704 51.168999 46.239662
80.851059 51.276661 26.670914
81.372375 51.27549 26.804535
90.782928 51.339832 15.279655
86.755737 51.321041 18.786324
90.003708 51.333984 16.319519
72.51371 51.232143 34.846558
78.583755 51.274719 27.238266
75.713799 51.247982 31.911346
76.146965 51.259438 29.997192
75.791351 51.258636 30.166924
67.984238 51.174278 44.77739
76.876373 51.265583 28.91436
80.403046 51.288483 24.793648
82.656265 51.288929 24.472763
70.218216 51.167633 45.614746
73.221252 51.17923 43.393852
79.57457 51.248421 31.415749
69.877792 51.156033 47.543671
77.375778 51.205421 38.666908
85.322418 51.28001 25.633881
72.815063 51.166462 45.520096
96.528809 51.373867 9.0989761
75.660126 51.202145 39.389694
69.675659 51.147415 48.970871
82.597305 51.259117 29.339371
87.827606 51.298721 22.306839
82.429749 51.261436 28.979591
70.24826 51.157032 47.339722
81.404282 51.236427 33.16803
91.831375 51.320156 18.371834
100.31691 51.393864 5.4214783
86.496765 51.278877 25.688866
80.831909 51.251411 30.789673
70.7416 51.167084 45.647652
78.523956 51.234539 33.79393
79.962799 51.244484 32.015015
85.686356 51.280121 25.574615
70.12265 51.178795 43.806053
94.148956 51.347237 13.701645
68.985703 51.175816 44.416832
86.023636 51.275364 26.312958
75.15123 51.191071 41.251022
81.451569 51.245209 31.731453
73.204185 51.162041 46.197548
104.37787 51.426857 -0.40388489
77.581589 51.241596 32.748169
101.33315 51.401409 4.0803223
89.021255 51.309456 20.426765
72.408028 51.175804 44.042725
83.336594 51.252617 30.317123
79.987335 51.248772 31.31295
79.384109 51.254429 30.456284
83.556351 51.262005 28.761696
104.19032 51.432159 -1.2467499
66.10672 51.153442 48.380302
101.57796 51.413616 2.0638885
78.282257 51.234283 33.862648
78.309906 51.16153 45.717865
73.086044 51.15554 47.269951
98.514832 51.365025 10.321358
95.603134 51.346958 13.587852
94.120819 51.322197 17.787323
94.462158 51.31889 18.287415
94.135834 51.319042 18.299866
82.783966 51.211105 37.144066
86.546494 51.253944 29.747543
78.77417 51.178337 42.927795
84.873184 51.218105 35.773903
104.40091 51.416275 1.319046
88.468262 51.268166 27.216843
92.52858 51.315632 19.031075
77.227463 51.194534 40.457146
74.756996 51.123863 52.249535
71.581032 51.140865 49.828171
77.734375 51.186913 41.643944
89.230484 51.292168 23.221588
78.665512 51.167397 44.723503
84.794754 51.240044 32.205444
95.28717 51.332592 15.964531
80.91806 51.202164 38.807152
95.120514 51.344936 13.969574
87.845627 51.262596 28.194077
74.088341 51.135136 50.486099
88.975006 51.260864 28.352097
73.208176 51.141769 49.502083
81.026932 51.225964 34.916611
101.82489 51.394276 5.1891785
81.232513 51.212494 37.088432
92.789612 51.301296 21.341469
89.010651 51.28651 24.168007
83.42453 51.207008 37.741852
89.817093 51.275795 25.824562
81.456558 51.228443 34.464783
107.87595 51.452976 -5.046524
89.362259 51.271843 26.518799
87.320877 51.252552 29.889221
86.170258 51.231297 33.480331
78.900635 51.176086 43.280365
75.594688 51.124596 52.038017
76.823578 51.144203 48.706398
93.913177 51.319077 18.318275
88.421707 50.8741 91.457939
112.65717 50.538982 143.41634
111.032 50.56321 139.64616
110.61481 50.555264 140.98715
99.270874 50.715248 116.15793
109.64417 50.585148 136.22235
96.247528 50.788132 104.60973
93.316116 50.837555 96.876343
90.623108 50.855484 94.250648
100.01414 50.696793 119.08467
120.93678 50.405243 164.30441
100.76979 50.688812 120.30251
111.1459 50.546295 142.39029
96.524689 50.768707 107.7459
96.836365 50.776817 106.38958
126.35529 50.320442 177.53049
108.67691 50.578552 137.40445
128.46832 50.294907 181.46069
119.69542 50.432274 160.03488
98.869766 50.738625 112.39163
89.036118 50.873676 91.459274
98.434738 50.733437 113.28543
98.068024 50.757736 109.36404
92.028702 50.832611 97.824417
100.23611 50.727886 113.99134
111.99321 50.54805 142.0106
123.92297 50.360973 171.19153
114.43518 50.492409 150.81174
112.52158 50.519234 146.64983
91.396912 50.827766 98.682678
122.74997 50.378723 168.42807
119.86115 50.42947 160.474
114.10934 50.51487 147.18655
109.6145 50.581642 136.79712
94.330658 50.81876 99.828598
123.19911 50.36607 170.44044
104.04819 50.653751 125.65559
104.68536 50.658142 124.86968
107.87694 50.612701 131.92621
110.84975 50.551956 141.50021
101.47644 50.687256 120.47815
100.49556 50.714138 116.20333
97.109558 50.764408 108.38271
105.43042 50.645504 126.84776
110.65332 50.562096 139.86934
92.689438 50.84325 96.016937
105.12402 50.657791 124.8782
62.669571 51.409439 7.0296402
80.335022 51.336926 16.904984
70.346191 51.452412 -0.82087708
82.95459 51.40675 5.234787
65.707367 51.318344 21.545181
20.64579 51.405289 12.335388
63.036804 51.246765 33.507751
73.123047 51.312267 21.71814
45.583122 51.348602 18.830261
49.537117 51.360603 16.437988
13.297974 51.444141 6.8106842
63.903244 51.24292 34.037766
79.057617 51.419189 3.6350403
44.661774 51.348419 18.959167
58.659798 51.248417 33.719353
39.456001 51.330452 22.461555
71.438217 51.287094 26.007698
44.484558 51.303284 26.337914
33.957664 51.259129 34.695045
77.159027 51.400673 6.8620148
74.492332 51.319046 20.462036
17.052856 51.420807 10.200699
33.642662 51.327927 23.514618
70.094063 51.337669 17.910851
80.130234 51.450443 -1.5773621
45.512878 51.253593 34.32431
1.0661125 51.424404 11.376358
38.742538 51.231598 38.654968
43.390015 51.430313 5.7502747
62.839577 51.406853 7.432785
-9.0708771 51.46207 6.3526611
79.058899 51.462261 -3.3853302
19.456062 51.338615 23.333435
71.632202 51.406567 6.5104294
4.523674 51.412964 12.860947
46.520088 51.234566 37.31398
19.475998 51.331367 24.514267
89.776566 51.416801 2.8433228
27.776054 51.436802 6.4133759
97.470886 51.42078 1.348114
48.892456 51.436104 4.2003479
57.260498 51.40662 8.0848999
10.043217 51.359299 20.999031
38.016655 51.247215 36.190384
64.452553 51.342476 17.750282
42.585632 51.260757 33.479263
43.496269 51.29081 28.479889
94.782669 51.457542 -4.3473053
48.334396 51.317276 23.631813
38.23278 51.444878 3.945694
35.251289 51.233486 38.731743
48.899796 51.292877 27.54641
43.056107 51.466213 -0.065139771
53.305977 51.196976 42.695335
66.732491 51.254585 31.82476
51.638046 51.294685 26.952042
93.788345 51.427032 0.73504639
32.743095 51.383568 14.543442
43.077972 51.275257 31.060188
30.588745 51.374348 16.283394
20.271751 51.360657 19.65152
77.057358 51.437466 0.87649536
64.822334 51.369434 13.313919
47.491295 51.400955 10.0858
48.188568 51.223232 38.978287
10.387363 51.391228 15.758011
65.718811 51.417095 5.4462128
86.836502 51.424068 1.982193
61.180176 51.401497 8.4875946
42.264282 51.471626 -0.85995483
66.164444 51.316639 21.772247
81.056229 51.384521 9.0658112
56.857269 51.452984 0.57261658
51.98362 51.218136 39.391335
45.74501 51.300499 26.651932
77.021759 51.457844 -2.4409943
79.046631 51.357971 13.615555
41.857292 51.222961 39.719292
34.690094 51.244652 36.973297
56.823853 51.321911 21.941658
72.740799 51.343033 16.745514
49.699501 51.36385 15.88958
53.06488 51.196556 42.78891
32.813507 51.410919 10.076851
43.186775 51.42244 7.0564194
76.342758 51.360451 13.509636
-6.7273369 51.447205 8.517395
66.853271 51.455387 -0.92164612
10.586754 51.412193 12.319038
41.060738 51.265381 32.893753
108.31264 51.474667 -8.6302643
42.447037 51.327366 22.635658
103.28099 51.469387 -7.2153015
46.499809 51.373337 14.696045
55.951057 51.232201 36.66188
50.518936 51.325642 22.027634
67.786713 51.47366 -4.0028534
6.728096 51.467339 3.7529907
70.123329 51.329975 19.162575
28.912231 51.34893 20.61142
24.197205 51.365906 18.364105
13.401962 51.430672 8.9952545
93.838226 51.459015 -4.4844666
25.716057 51.364925 18.356186
100.17624 51.46806 -6.6573181
10.712357 51.355988 21.465096
24.320091 51.434811 7.1182709
91.862335 51.382641 8.1830139
26.689354 51.350307 20.63205
70.894028 51.339287 17.55983
18.613663 51.335304 23.966782
62.068207 51.419655 5.4314423
37.63105 51.433342 5.8921051
51.163506 51.231346 37.328369
28.773315 51.395863 12.976448
61.306709 51.255936 32.202736
56.314896 51.217407 39.032928
62.684586 51.311066 23.064384
22.183548 51.430321 8.0852509
23.752274 51.302841 28.693863
36.523918 51.326065 23.501366
55.227203 51.410912 7.6090546
62.103958 51.41906 5.5237122
81.828506 51.408627 5.0530396
96.727188 51.437935 -1.3666992
2.1292953 51.467857 4.1758881
85.152374 51.364536 11.873833
64.820457 51.340595 18.015732
91.487427 51.381096 8.4762115
15.273323 51.337067 24.047523
25.749809 51.428764 7.9473877
6.1724091 51.384403 17.333954
80.172089 51.446434 -0.92868042
53.463142 51.428543 4.9308472
35.866951 51.457726 2.1103058
24.133881 51.472374 1.0163269
39.328751 51.231987 38.526527
61.863922 51.267395 30.273193
70.222977 51.433743 2.2353668
20.950531 51.441093 6.4645615
51.30442 51.236313 36.503105
35.23539 51.271645 32.513649
94.399445 51.4464 -2.4899292
62.17038 51.462765 -1.6078949
106.43658 51.467106 -7.1913147
33.938148 51.321938 24.458244
67.704834 51.436417 2.0778046
5.569519 51.453457 6.1438141
16.559052 51.384827 16.120857
29.947296 51.303986 27.824257
46.601105 51.432007 5.120697
50.149628 51.425255 5.8309097
34.59671 51.343086 20.938026
61.277916 51.386292 10.956375
50.279175 51.295277 27.00399
60.646202 51.31424 22.770592
105.27956 51.460018 -5.9079132
52.020958 51.275284 30.071739
88.886688 51.451687 -2.7444153
60.993988 51.259926 31.586876
46.375687 51.291847 27.993538
24.785461 51.462997 2.4729767
12.903214 51.391945 15.363503
54.918381 51.28619 27.974319
57.188805 51.29628 26.079712
25.709602 51.342823 21.961044
45.019844 51.282787 29.619881
58.500366 51.27623 29.203049
16.052887 51.369606 18.657036
56.665375 51.398346 9.4994202
57.080612 51.347538 17.736847
77.634964 51.453007 -1.7196198
74.667603 51.363731 13.159142
87.92981 51.44619 -1.7424469
13.437805 51.430588 9.0061646
62.614914 51.328262 20.268761
104.99989 51.460659 -5.9820709
60.103699 51.269371 30.144455
78.625092 51.341469 16.351883
65.647346 51.361565 14.506088
69.065758 51.354485 15.283287
7.1115799 51.45256 6.1207657
31.553169 51.271927 32.874245
61.842812 51.32444 20.976784
87.521072 51.404728 5.0601807
90.668411 51.391888 6.8071976
74.87645 51.300442 23.453125
63.308052 51.286377 27.020775
63.201935 51.471966 -3.2210541
32.192368 51.454948 2.9694519
26.934326 51.28717 30.896561
104.44765 51.448856 -3.9967041
61.93412 51.25132 32.885422
65.297333 51.398376 8.5434647
40.909782 51.274574 31.411453
69.361549 51.344589 16.864784
74.323669 51.339432 17.157532
65.224487 51.378426 11.804192
26.537842 51.456894 3.2743073
48.20903 51.343422 19.383728
51.521973 51.283703 28.754105
83.498032 51.444675 -1.0085602
89.953232 51.386986 7.6855316
69.430504 51.291122 25.573318
77.902481 51.45953 -2.8130341
27.315788 51.389961 14.098351
76.807571 51.36837 12.16729
27.84137 51.308594 27.304642
92.470993 51.429893 0.41366577
85.687698 51.365688 11.626396
42.509438 51.341545 20.317635
44.192169 51.461952 0.50427246
43.297852 51.328369 22.378242
63.751808 51.337059 18.709709
24.275917 51.303177 28.580513
88.388611 51.43111 0.66487122
54.068604 51.363571 15.454773
49.594063 51.172859 47.034462
36.262451 51.286129 30.039772
58.935966 51.269669 30.225822
0.33879852 51.468872 4.2077789
68.214035 51.362274 14.10762
18.573761 51.387566 15.452072
37.706741 51.388111 13.25666
46.020653 51.334175 21.133575
42.157455 51.450546 2.589798
40.311195 51.401688 10.757019
36.822327 51.256329 34.835815
34.699135 51.410572 9.926384
52.530197 51.444427 2.4434814
30.486992 51.459713 2.3796997
82.78894 51.41629 3.6963806
63.218628 51.297058 25.289032
8.549511 51.372459 19.018555
60.511406 51.406799 7.6978912
45.16021 51.321152 23.349991
28.003807 51.469864 0.99809265
68.726418 51.286438 26.412842
56.631889 51.356094 16.391243
62.890419 51.298958 25.014282
104.18419 51.472847 -7.8793793
17.919052 51.418331 10.508835
67.175903 51.394814 8.9171906
53.862679 51.328804 21.144554
72.283783 51.398655 7.7289734
80.70639 51.453228 -2.0949097
63.74192 51.408966 6.9885101
69.523453 51.399483 7.8984299
35.839958 51.263672 33.746567
38.740936 51.435287 5.4525604
56.120667 51.461849 -0.79179382
46.842316 51.27951 29.953117
32.184784 51.347099 20.548759
48.674438 51.41835 7.1198883
50.383598 51.176819 46.302414
10.521229 51.45681 5.0515442
2.0779457 51.409187 13.74469
59.028069 51.241264 34.845512
71.382614 51.433949 2.0759277
93.124969 51.411476 3.3434296
52.107651 51.443409 2.655777
73.960991 51.384308 9.8822632
26.532646 51.286453 31.058281
74.188515 51.441624 0.51402283
59.658936 51.320122 21.920525
77.290421 51.418598 3.926651
55.923981 51.269772 30.540298
78.188614 51.448948 -1.1199951
48.017334 51.198364 43.051224
83.004684 51.342373 15.72168
27.00676 51.445145 5.1376801
50.622971 51.465115 -0.71824646
75.965858 51.314743 21.002258
54.280083 51.246201 34.564262
-2.5770226 51.458355 6.2431335
2.2436523 51.42205 11.629654
65.869797 51.40099 8.0553207
39.856247 51.451138 2.7458801
44.988907 51.294586 27.69883
38.158096 51.223053 40.113075
2.822876 51.416977 12.393829
44.226028 51.418579 7.5713501
4.1504097 51.40205 14.679558
46.028381 51.386162 12.656326
44.439789 51.26701 32.255417
65.572014 51.394615 9.1265259
81.166763 51.431747 1.3557129
70.424759 51.320877 20.612
19.624527 51.368656 18.417999
17.439606 51.348175 21.998787
81.535446 51.448792 -1.4623871
20.551575 51.43869 6.901535
47.414894 51.449402 2.1959839
19.47464 51.370209 18.182907
56.745995 51.423077 5.4599915
24.485733 51.297012 29.561981
60.205139 51.298088 25.452713
12.586418 51.415039 11.63295
9.2885437 51.4645 3.9341125
49.841354 51.205025 41.764259
86.720688 51.36137 12.217003
81.543823 51.474777 -5.6997223
6.7372208 51.440025 8.2051392
25.327774 51.288681 30.827019
20.360252 51.337906 23.351067
89.383514 51.400551 5.5365295
71.066933 51.31205 21.980392
8.2410431 51.394154 15.516312
49.990585 51.391083 11.418381
29.758736 51.460434 2.3427734
25.220612 51.445454 5.2838287
34.420898 51.346695 20.368767
85.733246 51.464451 -4.4785004
15.781563 51.458351 4.2210388
60.255722 51.228683 36.76133
70.294708 51.46999 -3.6804504
22.53476 51.41814 10.031731
5.4892235 51.404106 14.1978
97.194 51.441982 -2.0784302
59.684753 51.45842 -0.62580872
95.14296 51.42268 1.2949982
95.218887 51.404404 4.2650452
88.683777 51.46109 -4.2547607
17.056473 51.357494 20.521095
36.159653 51.45488 2.543335
71.29863 51.351097 15.589752
34.158554 51.288933 29.81369
8.573822 51.451759 6.0900421
8.7232819 51.379478 17.855988
39.644287 51.331154 22.327187
90.385086 51.446629 -2.0848694
52.829872 51.348251 18.087616
82.270264 51.419399 3.248291
34.396942 51.404163 11.004181
45.732971 51.298561 26.970146
41.464355 51.440552 4.2941437
70.141296 51.352921 15.418884
83.715652 51.352489 13.995552
6.0457611 51.443253 7.7541962
62.140816 51.303001 24.438065
51.83004 51.215393 39.853745
21.77623 51.310249 27.702438
3.023201 51.399445 15.228638
-7.3854256 51.462505 6.0955048
0.66855621 51.458305 5.8931885
106.49619 51.471558 -7.9229126
33.769577 51.39006 13.371521
-2.67342 51.430424 10.806412
-5.5317993 51.469948 4.6784973
82.41684 51.358986 13.079636
69.52253 51.46759 -3.2031403
21.598412 51.369484 18.0672
69.690163 51.328606 19.432777
28.236389 51.364544 18.141884
82.388306 51.380978 9.4978256
23.969582 51.338913 22.788689
89.465851 51.406986 4.4781189
57.84343 51.355141 16.412537
27.891853 51.297432 29.119202
59.952278 51.364319 14.683868
54.044083 51.436344 3.5939636
56.206306 51.378109 12.849083
7.2297363 51.386269 16.912971
51.617599 51.3666 15.230598
92.23877 51.386013 7.5919418
22.373009 51.342323 22.410034
27.498947 51.373516 16.760185
60.511238 51.324806 21.063591
47.109825 51.269859 31.497169
61.94838 51.412903 6.5450439
22.786652 51.399536 13.038132
69.294678 51.316933 21.379654
43.030502 51.2439 36.178177
21.737206 51.32996 24.494881
3.9416122 51.439774 8.5547028
0.75358582 51.438305 9.1437073
4.7776909 51.45512 5.9601898
53.395142 51.25042 33.973221
33.883461 51.37743 15.418839
85.162567 51.457188 -3.2311554
37.702553 51.41938 8.1597595
52.446426 51.446983 2.0367584
59.71022 51.223511 37.663338
89.58078 51.449951 -2.5377502
69.839363 51.399212 7.9066925
51.120209 51.201996 42.116798
66.205276 51.302101 24.137543
84.65715 51.400181 6.1169815
62.495102 51.37463 12.723495
61.11866 51.287415 27.091789
77.749954 51.452278 -1.6139984
54.760094 51.395962 10.097321
87.784805 51.402981 5.3168488
47.439369 51.36636 15.7304
11.428631 51.457081 4.9086151
95.593918 51.443542 -2.1559296
55.188843 51.389355 11.128647
25.105759 51.406326 11.673492
-0.27675629 51.456123 6.3536072
58.014755 51.215759 39.11322
24.441139 51.355755 19.991356
36.577484 51.393402 12.517189
9.9114761 51.385201 16.792282
45.791161 51.348923 18.754379
59.603081 51.308277 23.858276
43.602425 51.379173 14.063263
46.318016 51.182343 45.848404
61.978691 51.403145 8.1322403
55.018211 51.468414 -1.7405548
58.880959 51.281761 28.258667
50.602608 51.402409 9.5049286
71.357162 51.385647 9.9510422
52.63913 51.231483 37.143173
45.945564 51.288811 28.535583
16.607552 51.368835 18.722656
33.673927 51.392395 13.003235
50.540474 51.211025 40.709473
36.818481 51.376854 15.190536
54.386261 51.236557 36.122963
5.4162903 51.400345 14.818916
53.086205 51.400612 9.5241928
61.674728 51.250381 33.068222
69.537796 51.366302 13.304726
50.769295 51.440632 3.2560883
0.48928833 51.447441 7.6852417
55.576431 51.28363 28.319633
72.880341 51.332466 18.453018
41.608536 51.316399 24.516678
55.924469 51.376457 13.149071
25.495735 51.314602 26.584251
60.291115 51.239986 34.913658
43.910088 51.262623 33.028877
62.678833 51.327576 20.37365
20.161827 51.435471 7.4679031
69.585106 51.402458 7.406311
83.926605 51.433403 0.7815094
19.505951 51.370918 18.063095
63.671585 51.341759 17.952591
28.160973 51.400894 12.223503
52.357971 51.347221 18.307487
55.79512 51.418007 6.3909149
53.483841 51.276794 29.663864
10.447926 51.378727 17.788872
81.092422 51.447262 -1.165451
84.718277 51.411777 4.2209167
67.252922 51.295837 25.042519
26.113213 51.314823 26.480278
47.627708 51.185799 45.143204
8.8300018 51.381058 17.586823
34.722359 51.2575 34.876266
74.697876 51.307022 22.39949
18.83342 51.413223 11.24118
18.983246 51.337341 23.59436
56.735451 51.472145 -2.5387726
61.551819 51.406696 7.6001434
37.25145 51.336334 21.747299
56.072731 51.307613 24.355423
56.161201 51.442375 2.3778381
30.746819 51.469765 0.71226501
80.804794 51.441963 -0.26939392
35.641998 51.459305 1.878067
19.776062 51.385296 15.691376
105.61685 51.459877 -5.9230347
60.637474 51.367302 14.12191
74.955574 51.313358 21.338326
60.626945 51.423386 4.9818115
16.460609 51.432777 8.3156815
96.571503 51.418808 1.768219
48.7369 51.470062 -1.3169708
46.345451 51.443214 3.3218231
34.16748 51.34494 20.682526
11.588081 51.404072 13.531235
5.5047226 51.417618 11.993668
46.520523 51.330139 21.735046
63.055222 51.400894 8.3802032
-5.0608482 51.433411 10.58297
64.243004 51.352322 16.167038
43.49752 51.304962 26.172523
-2.4237213 51.457436 6.3767548
98.608246 51.459427 -5.0770874
57.923683 51.215206 39.213982
47.347656 51.316193 23.917145
51.736153 51.40905 8.2979202
18.192764 51.402912 12.993141
47.425682 51.279911 29.823578
65.482826 51.383289 10.983139
33.249886 51.324326 24.145203
69.103882 51.28331 26.882233
76.320442 51.313515 21.162552
57.236679 51.212997 39.64994
60.511551 51.238022 35.209869
20.833679 51.309856 27.870453
21.823441 51.468361 1.9246674
4.7468414 51.460396 5.1025391
75.488441 51.442898 0.16389465
48.717461 51.450157 1.9307251
31.300308 51.309898 26.712242
68.821999 51.466457 -2.942688
61.197037 51.348572 17.113663
49.442291 51.279152 29.724823
43.132797 51.191528 44.702904
66.579422 51.254745 31.815254
0.53767014 51.418022 12.475204
60.423706 51.344147 17.920753
44.856003 51.459663 0.80506897
85.018402 51.472469 -5.7056427
37.293983 51.384785 13.844337
84.461731 51.349922 14.331612
94.044601 51.40023 5.0753784
75.724907 51.435715 1.3083801
34.44178 51.235062 38.565613
33.165405 51.37104 16.539268
44.984474 51.463242 0.20814514
69.264427 51.342308 17.246246
18.873993 51.32579 25.489929
-7.3776588 51.45665 7.0504456
36.80114 51.426872 7.0374298
40.547806 51.330536 22.328033
48.312485 51.463215 -0.15364075
61.154305 51.22625 37.057968
44.082718 51.414467 8.2576904
57.140953 51.412914 7.07164
95.818115 51.434971 -0.78239441
77.317368 51.356968 13.969452
54.547874 51.217861 39.152863
54.429016 51.323677 21.917435
66.69603 51.365646 13.724831
37.453705 51.335495 21.861435
66.776657 51.346115 16.899979
68.770798 51.418545 4.8736267
-8.9504814 51.45787 7.0236969
39.139542 51.357162 18.142944
34.601357 51.444332 4.4342194
57.369392 51.283447 28.151482
47.514572 51.285957 28.826416
43.48201 51.219849 40.048706
68.563194 51.458866 -1.6764679
37.252129 51.363281 17.354668
17.021393 51.459381 3.9168396
80.037964 51.35833 13.44812
79.439392 51.431618 1.5679169
50.379395 51.330345 21.276772
55.737137 51.450676 1.0722809
93.601593 51.434765 -0.50488281
71.651764 51.309387 22.350571
44.786743 51.358742 17.264267
51.552605 51.217926 39.473007
73.942657 51.301304 23.415741
84.538956 51.347942 14.645424
76.698456 51.34967 15.228088
57.560242 51.450092 0.9657135
26.989937 51.439625 6.0393219
59.978439 51.341877 18.339676
23.58606 51.33741 23.077148
85.304779 51.427528 1.5883026
47.20462 51.304665 25.811295
57.934021 51.307045 24.242996
37.162987 51.357487 18.307526
101.02724 51.454681 -4.5681915
61.34127 51.444214 1.5074463
73.33876 51.46352 -2.9610596
19.408035 51.439499 6.8939056
14.383881 51.379932 17.158562
-3.0297546 51.429169 11.050423
51.156319 51.423019 6.084465
12.235878 51.467484 3.1231232
41.697655 51.374725 14.998703
51.794807 51.452614 1.1892548
24.843414 51.297455 29.451103
46.610672 51.312943 24.528519
24.340057 51.352535 20.527229
78.230057 51.468124 -4.2500153
55.540222 51.353752 16.892776
2.5004654 51.469299 3.8995514
37.207146 51.434929 5.6794586
-3.1100502 51.448959 7.8321609
87.876785 51.377701 9.4274597
7.8962479 51.446465 7.0282059
2.2828598 51.448219 7.3600769
69.583084 51.461567 -2.2281189
73.695686 51.416729 4.6276703
68.912384 51.430683 2.8792877
57.048424 51.231281 36.690269
35.166893 51.280506 31.075607
21.344261 51.424042 9.201889
41.136269 51.388626 12.795853
57.848015 51.227425 37.232262
69.339264 51.365936 13.387123
42.299309 51.301613 26.850609
60.136986 51.398861 9.0335693
8.0937347 51.372299 19.096367
44.829201 51.359322 17.165466
89.611099 51.420723 2.2231293
61.983696 51.255264 32.237099
36.2724 51.408531 10.086044
14.774689 51.350777 21.867996
74.63768 51.437885 1.0742645
36.387634 51.330681 22.76326
58.443985 51.309853 23.729645
58.551704 51.214401 39.276291
38.914322 51.228096 39.206818
18.733284 51.365929 18.962143
38.703308 51.260262 33.988312
41.284996 51.302986 26.738747
60.947258 51.464859 -1.8148346
36.724541 51.341969 20.886482
58.104614 51.267395 30.686417
25.592827 51.286705 31.120674
5.7847824 51.41872 11.782898
-8.4123077 51.464661 5.858078
54.21521 51.310928 24.019119
40.943497 51.421349 7.4819946
1.0267792 51.434841 9.6788025
38.256569 51.255943 34.740013
59.543777 51.254822 32.577896
59.137138 51.251137 33.223106
34.166992 51.433231 6.2908249
23.957825 51.339806 22.64476
40.057869 51.426231 6.7828979
-3.4976501 51.44706 8.1850739
71.772301 51.363525 13.511566
62.241608 51.262936 30.957848
91.63681 51.400372 5.3172913
37.021461 51.273026 32.091148
22.827415 51.386585 15.143417
-6.6460114 51.468437 5.0472717
48.944435 51.348549 18.467072
46.631821 51.318096 23.685715
24.749527 51.401863 12.443001
33.489555 51.322243 24.457176
-4.2805519 51.467712 4.9051666
50.345413 51.390594 11.459755
81.679184 51.455315 -2.5425873
53.383423 51.236877 36.182182
31.280838 51.282085 31.246597
60.777702 51.300728 24.958725
64.15934 51.437157 2.3482819
31.226234 51.343971 21.165024
56.186562 51.218796 38.821114
76.666306 51.399895 7.0448761
79.423019 51.34721 15.327713
13.049454 51.389313 15.775955
36.790375 51.452118 2.9233551
44.83149 51.275059 30.899841
30.178543 51.379074 15.55896
63.29287 51.284206 27.375511
94.230164 51.450798 -3.1882324
50.072327 51.432327 4.6856232
61.661659 51.467705 -2.3567352
41.695244 51.312614 25.123665
20.831604 51.330696 24.474442
76.291122 51.447102 -0.60966492
19.327675 51.457153 4.0258331
6.9605255 51.448921 6.7308197
53.465172 51.241093 35.486115
52.405968 51.231052 37.238441
78.780838 51.315079 20.63736
16.389175 51.434196 8.0913849
76.308754 51.393768 8.0812836
29.544418 51.384163 14.799736
100.81453 51.428177 -0.22590637
99.304932 51.443169 -2.5032043
48.624161 51.347237 18.716614
34.055008 51.30999 26.392899
70.427055 51.317757 21.120346
28.765289 51.380959 15.40657
77.900681 51.446911 -0.75492859
10.655418 51.394344 15.21933
87.070541 51.428944 1.163559
68.75074 51.389084 9.6779327
20.166931 51.446701 5.6379852
65.091637 51.44466 1.0221252
65.418419 51.447582 0.50912476
48.114899 51.463387 -0.16113281
26.081985 51.297676 29.278137
28.938713 51.28051 31.761993
10.227272 51.418438 11.339142
12.164948 51.359264 20.77269
58.051598 51.327499 20.896042
48.727959 51.333897 20.880142
42.695709 51.271969 31.63765
31.701904 51.454277 3.1314545
4.5475922 51.388607 16.827454
13.085655 51.346504 22.749916
92.190781 51.398907 5.4954529
29.42823 51.409584 10.668434
46.679138 51.223305 39.132553
93.749649 51.401344 4.9250031
94.208511 51.473782 -6.9320679
46.85244 51.418991 7.2143478
47.075706 51.469841 -1.0980835
29.669136 51.311172 26.682892
12.149216 51.441891 7.305069
33.49128 51.402859 11.316078
83.121033 51.402374 5.9292908
43.988327 51.357178 17.606949
22.516037 51.37664 16.799011
49.701111 51.466747 -0.88328552
63.870499 51.418564 5.410614
38.37883 51.446911 3.5975494
9.1481857 51.362709 20.543106
46.983345 51.291573 27.970749
60.549385 51.29454 25.992729
88.491745 51.444031 -1.4525757
60.492859 51.23674 35.421371
15.972679 51.420021 10.448715
35.582367 51.416618 8.8437347
42.851501 51.376694 14.550354
56.832581 51.196831 42.330048
61.857162 51.228127 36.674789
73.914742 51.284866 26.097946
89.229187 51.361115 11.981567
62.338646 51.220192 37.914597
83.826035 51.33836 16.286751
84.132309 51.334694 16.849701
61.189453 51.205494 40.437828
69.361076 51.265976 29.679115
53.199989 51.174484 46.374039
101.5791 51.431133 -0.79142761
66.775764 51.240128 34.176735
58.589058 51.201897 41.310806
82.946167 51.335995 16.768639
79.958313 51.316639 20.252861
54.834137 51.177475 45.705376
57.825958 51.200302 41.655006
85.654373 51.347713 14.560112
84.399109 51.336533 16.521576
65.434013 51.239807 34.376579
67.75013 51.248428 32.717392
91.668625 51.377483 9.0457458
58.254997 51.186924 43.787994
83.397522 51.333122 17.187141
51.840843 51.169857 47.277115
74.485695 51.289413 25.29409
94.539246 51.393211 6.1647339
95.479614 51.399036 5.1114349
66.981689 51.209072 39.216507
73.572174 51.265945 29.219971
77.692719 51.285522 25.574631
87.623169 51.344059 14.938545
59.526749 51.170578 46.313087
68.226852 51.231773 35.378387
78.955139 51.28788 25.052048
66.136749 51.225796 36.583252
90.236725 51.35635 12.647209
82.668472 51.31702 19.892426
99.679306 51.416382 1.8222961
63.542953 51.212856 38.97805
60.619431 51.168839 46.476112
63.550674 51.18557 43.425133
59.706543 51.172665 45.952606
101.93091 51.425499 0.087142944
80.298233 51.290688 24.445068
81.74144 51.314938 20.334679
63.01339 51.206154 40.128876
85.145859 51.330624 17.402092
95.036499 51.382671 7.8282013
59.206154 51.190712 43.065605
64.616547 51.20929 39.441406
76.886719 51.268402 28.453804
66.40239 51.219799 37.531006
73.698921 51.265793 29.2304
95.078506 51.389713 6.6754837
63.864456 51.201836 40.739799
93.218811 51.373215 9.5701218
62.928871 51.202114 40.797623
65.185608 51.199219 41.021393
69.838242 51.232971 35.006676
87.137466 51.337296 16.09481
56.344398 51.165939 47.418762
81.330505 51.154533 46.52597
88.682571 51.241413 31.554573
82.560623 51.189133 40.749733
96.896301 51.328548 16.444794
99.183441 51.356007 11.717674
89.616226 51.244476 30.951576
98.670364 51.353302 12.21566
87.99173 51.244316 31.156601
88.718384 51.241241 31.579308
77.925354 51.143661 48.673264
91.475861 51.244606 30.726135
79.325836 51.108009 54.331039
99.267151 51.354469 11.959526
84.15773 51.163319 44.782669
99.903931 51.3694 9.4547424
80.893753 51.1717 43.777275
86.044052 51.225075 34.507614
85.072876 51.216282 36.048309
86.222046 51.19651 39.144325
91.174438 51.257351 28.682411
99.537888 51.355366 11.782562
75.883057 51.122307 52.37915
92.571564 51.284122 24.16452
98.679886 51.341515 14.136215
78.619644 51.131691 50.548454
103.18149 51.402718 3.6637878
98.243179 51.347878 13.147148
95.432877 51.305695 20.332703
99.217941 51.358429 11.319092
81.129135 51.15155 47.035126
104.02037 51.410725 2.2653656
78.124039 51.145405 48.366936
80.184906 51.156563 46.322449
83.325317 51.170845 43.648407
88.528778 51.213242 36.16394
93.66066 51.302666 21.021194
91.084106 51.252331 29.51004
94.941055 51.306675 20.226768
100.53474 51.374611 8.5371857
88.523224 51.226963 33.926758
86.468063 51.205208 37.699745
84.276764 51.174477 42.950806
95.070297 51.311317 19.455345
78.162415 51.108883 54.31675
94.550095 51.245857 30.18367
94.181656 51.274036 25.630402
89.200729 51.157356 45.199097
84.480606 51.128517 50.418449
81.945343 51.108719 53.926811
94.923569 51.254692 28.702713
93.270248 51.223801 33.920158
83.991852 51.096199 55.742004
84.882309 51.131004 49.970825
96.750778 51.282284 24.00312
86.303421 51.150681 46.606094
99.858826 51.331875 15.578186
92.276184 51.244785 30.608788
85.94104 51.124237 50.956894
85.309875 51.121357 51.496002
87.869537 51.160126 44.894501
86.512115 51.160164 45.037811
91.018005 51.201309 37.834869
85.872726 51.163055 44.636284
94.295685 51.23336 32.248901
103.58185 51.383766 6.7084274
92.854034 51.236656 31.870499
80.785294 51.096634 56.024788
99.280518 51.330959 15.790192
91.261108 51.23848 31.748611
99.867035 51.334755 15.10688
84.538071 51.103249 54.532181
91.56366 51.230019 33.093925
82.784027 51.117435 52.414139
93.017944 51.220886 34.422821
96.19281 51.264088 27.031235
99.879974 51.339409 14.346634
98.480606 51.326164 16.660454
108.09911 51.445679 -3.8812103
