ply
format ascii 1.0
comment PCL generated
element vertex 1564
property float x
property float y
property float z
element camera 0
property float view_px
property float view_py
property float view_pz
property float x_axisx
property float x_axisy
property float x_axisz
property float y_axisx
property float y_axisy
property float y_axisz
property float z_axisx
property float z_axisy
property float z_axisz
property float focal
property float scalex
property float scaley
property float centerx
property float centery
property int viewportx
property int viewporty
property float k1
property float k2
end_header
31.559391 -1.3353691 37.111851
32.693993 -1.2333298 38.289585
43.304577 50.098576 19.667374
44.071472 50.184368 20.485382
45.539879 50.200405 22.27787
43.847534 -0.13280487 51.498802
48.880463 40.733974 32.276333
48.922279 40.377625 32.567581
47.55381 0.23304367 55.707848
49.451385 35.928535 36.062859
49.774452 33.046768 38.18396
50.288612 28.6106 41.512085
50.339165 28.174189 41.83791
49.086472 0.38419914 57.607033
51.358215 0.60845947 60.178375
52.302242 11.296696 54.822533
52.043983 0.676054 61.073624
52.759933 7.4165211 57.637047
52.973202 5.6024475 59.137665
53.138008 4.0870705 60.238533
2.247345 -2.270628 1.6077461
2.2423782 -2.1992302 1.7078018
2.9719315 3.3928051 -0.9137764
4.8880615 8.0190659 -1.4649277
7.3551674 13.159118 -1.5343933
6.9983978 -3.7691669 8.3869305
7.0503998 -3.7541046 8.5820007
11.523663 -3.3126888 13.836468
13.303848 25.256529 -1.6673851
17.587433 33.762917 -1.780098
18.508091 35.744396 -1.8023682
21.310345 41.297089 -1.8695412
25.905338 -1.9034653 30.599762
28.402973 48.637981 2.3673592
27.007671 -1.7846699 31.927834
30.331703 -1.4666214 35.730644
33.351501 49.116207 8.2236404
35.749813 49.363026 10.913269
36.31395 49.408539 11.703358
36.987514 49.485142 12.391777
39.555161 49.728485 15.378448
39.664024 49.739269 15.466438
40.059708 -0.50673294 47.220093
49.282166 37.306053 35.052048
49.299141 37.169888 35.209229
49.377075 36.601074 35.727043
49.658085 34.07011 37.520058
49.727478 33.464264 37.936195
50.81015 24.14855 45.062416
50.908081 23.394482 45.650764
51.140289 0.5968647 60.080818
53.344334 2.426506 61.660851
2.3783684 1.0155315 -0.047691345
2.9079666 -4.1730289 3.8380165
9.1231918 -3.5597153 11.133358
11.855011 -3.2901363 14.334312
18.517628 36.03949 -1.792942
18.96011 36.97369 -1.8136253
19.071865 37.217815 -1.8163338
19.390202 37.720531 -1.8138008
18.224804 -2.6514282 21.705948
18.69389 -2.6052055 22.330635
24.714647 -2.0110283 29.336472
26.25012 -1.8595333 31.162399
31.727104 48.955864 6.3768387
31.724823 -1.3292637 37.498001
31.83172 -1.308773 37.746563
34.948036 -1.0112171 41.298012
48.1203 47.339401 27.57193
48.115761 47.482464 27.557095
48.222305 46.56068 28.234837
49.664116 34.054161 37.725723
50.434441 27.421085 42.773582
52.939426 5.8620548 59.237717
5.2080078 9.3190937 -1.483448
8.2389679 -3.6470757 10.220211
9.8156166 18.476372 -1.583931
10.792522 20.482349 -1.607439
11.291351 21.607071 -1.6295776
15.200825 29.578136 -1.7135735
15.933647 31.119625 -1.7312565
16.439575 32.007427 -1.7432346
20.296879 39.759895 -1.8358421
18.870338 -2.5878792 22.637207
22.431433 44.292572 -1.8873978
23.063066 45.326633 -1.8911705
25.364534 47.868206 -0.53326416
26.785913 48.462513 0.83733177
24.825453 -2.0002174 29.609016
30.640877 48.858532 5.32444
29.218338 -1.566782 34.82267
30.969597 -1.39394 36.842915
35.313023 49.319614 10.762245
37.597847 49.545063 13.464783
35.266663 -0.96986771 41.839714
39.016525 49.674942 15.205482
36.944859 -0.81428528 43.776825
40.80088 49.851093 17.213661
40.436333 -0.4597683 47.95295
41.408401 -0.36388779 49.144707
46.951576 49.577812 24.931694
47.810959 48.547359 26.632584
47.93668 48.211834 27.070301
48.333611 45.558689 29.228725
48.368011 45.33569 29.326721
48.497452 44.145706 30.292175
46.441166 0.12271118 55.028015
49.214172 38.067039 34.951687
49.507088 35.534401 36.822891
50.829121 24.136547 45.420563
51.305214 20.036144 48.536278
51.305077 19.953224 48.612335
51.779037 15.983734 51.768517
51.852798 15.336869 52.197716
51.978554 14.264633 53.070633
52.456024 10.160669 56.233818
52.095184 0.68073082 61.565178
52.641605 8.5622215 57.44767
52.680599 8.1255894 57.702568
52.903343 6.196352 59.110344
52.814098 0.75159645 62.497414
53.14518 4.1221638 60.732964
53.533657 0.86382484 63.21376
2.3787117 -3.3891411 2.9930801
4.5668106 8.2638245 -1.4583454
4.9774246 9.1928501 -1.4783421
5.3427124 9.8635788 -1.4870319
5.3649521 9.9825516 -1.4876595
7.9431915 15.066652 -1.5394287
7.8066521 -3.6898556 9.8500309
8.1014099 -3.6508427 10.338161
11.494759 22.229902 -1.6247272
11.714458 22.625011 -1.6299419
12.895741 25.195444 -1.6585541
15.474609 30.315268 -1.7203865
17.235695 33.807514 -1.7726097
17.612656 34.804352 -1.7819633
17.298603 -2.7531605 20.94854
18.400192 -2.6345272 22.378651
27.974125 48.595234 2.3628654
27.494961 -1.7369823 32.957104
31.938728 48.986454 7.0182705
37.375004 -0.77209282 44.574799
42.491112 50.027733 19.430244
42.583878 -0.24798775 50.633232
49.117378 38.920391 34.409592
49.475174 35.738342 36.752213
49.632496 34.474155 37.735329
50.137016 30.133247 41.057167
49.324986 0.40717697 58.536812
50.711407 25.103691 44.90023
51.264301 20.340431 48.5121
51.507736 18.266794 50.210922
51.578255 17.72974 50.531868
52.039989 13.684275 53.701645
52.182262 12.535332 54.519928
52.253136 11.821024 54.969444
52.53038 0.73361588 62.203163
52.883717 6.4119415 59.197029
52.90517 6.3131676 59.269035
53.265507 3.2078724 61.618767
53.449619 1.5192394 62.813271
2.1264534 -0.85022545 1.2931099
2.356266 -3.1428223 3.0912476
4.3175087 -4.0343609 5.9860516
5.7563705 -3.8923779 7.6738052
9.6185799 -3.5012665 12.273903
9.87323 -3.4860821 12.453201
11.167736 21.858974 -1.6272449
14.397327 -3.0296879 17.864311
15.37558 -2.9331303 18.987228
18.48761 36.83577 -1.7933121
20.898512 41.514202 -1.8509808
20.233425 -2.4637432 24.610832
22.754511 -2.2049141 27.564995
27.118942 -1.7742004 32.647686
29.844685 48.779598 4.80336
28.27021 -1.6706715 34.033531
29.605347 -1.5289326 35.67099
35.465408 -0.96066475 42.485832
40.248531 49.796349 16.84367
38.386917 -0.66226959 45.857681
41.748016 49.944195 18.738682
42.780708 50.05619 19.907875
46.059776 50.070972 23.952133
45.779846 0.057237625 54.499901
48.424923 44.901585 29.958008
46.535664 0.13177109 55.443535
48.618118 43.163513 31.345238
48.827137 41.438869 32.596626
49.234169 37.864723 35.409328
49.627121 34.565937 37.910561
49.911861 32.124062 39.82235
48.782753 0.35361862 57.966286
50.609467 0.54381943 60.223503
51.655296 17.103485 51.208275
51.667725 16.989853 51.259392
51.766182 16.04854 51.937897
51.767036 16.06555 52.05584
51.932739 14.641728 53.155861
52.04245 13.755127 53.677231
51.61982 0.63348579 61.397446
2.1895828 1.3613586 0.25188828
2.1546593 -1.2879791 1.8535938
2.5267563 -4.201128 4.0061874
3.3649445 6.118063 -1.267704
10.24374 20.257656 -1.5953808
12.579456 24.996979 -1.66152
13.067135 25.955471 -1.6732025
16.451591 33.013908 -1.7547798
15.762909 -2.9050846 19.587311
21.549978 43.244362 -1.877161
21.413614 -2.3474007 26.130714
21.739231 -2.3152428 26.485947
24.270939 -2.0554333 29.52906
27.658474 48.563824 2.2977505
28.457565 48.642612 3.298748
30.290489 -1.4715157 36.637558
37.410667 -0.75880051 44.935722
40.136646 49.795094 17.014584
38.688278 -0.63269806 46.399467
46.03046 50.081676 24.002472
45.804398 0.059429169 54.794197
48.284904 46.147453 29.226387
48.521889 44.116966 30.826176
49.051651 39.54163 34.234169
49.988018 31.474667 40.350826
50.089897 30.506222 41.062698
50.228592 29.340559 42.103561
50.273628 29.014565 42.218811
50.49361 27.150553 43.799736
50.955475 23.163464 46.77948
49.992905 0.48284721 59.655037
51.093353 21.981291 47.706329
50.879013 0.56026268 60.671761
52.449314 10.30295 56.58036
53.206112 3.6912975 61.565613
53.332161 2.7024021 62.371498
53.460983 1.6061878 63.276161
6.6262131 13.259747 -1.5088806
7.1136055 14.182226 -1.5205078
7.8005829 15.735675 -1.547226
10.846588 21.824366 -1.6203117
10.458607 -3.41856 13.477974
14.588772 29.379625 -1.7101974
17.962769 36.177494 -1.7812157
16.912258 -2.7818089 21.158039
17.495777 -2.7242088 21.822906
19.699211 39.846169 -1.8231316
19.010273 -2.5747166 23.546089
21.558792 43.563751 -1.8677521
24.20385 47.415421 -0.96258545
24.51511 47.581829 -0.80170822
25.741787 -1.910471 31.45966
27.077595 -1.7886467 32.970695
35.123322 49.290154 11.336273
33.844528 -1.1107597 40.813053
34.699211 -1.0365562 41.917419
39.1516 49.687725 15.997887
40.526142 49.823429 17.523422
41.628197 49.932175 18.827438
43.69812 50.146389 21.367817
44.34008 50.199726 22.076485
47.399178 0.21667671 56.814423
49.382893 36.625137 36.573494
49.827995 32.88839 39.467667
49.047802 0.38941956 58.743095
50.81601 24.376839 45.923332
51.417591 19.1334 50.038559
50.732269 0.5456543 60.640564
51.288521 0.61062622 61.25943
51.982502 0.67904663 62.143532
52.510139 9.8175812 57.156311
52.549492 9.4816265 57.427322
53.276531 3.1956253 62.07299
53.442959 1.6955452 63.319458
2.2466431 -2.0974464 2.841629
4.6958542 -3.9975414 7.0228271
9.3695412 19.194721 -1.5852852
10.921879 22.360361 -1.6226082
11.127838 22.653013 -1.6274014
19.189224 39.00164 -1.821125
19.474529 39.580624 -1.82798
21.907221 44.486095 -1.886404
20.177399 -2.4596481 25.033768
23.248486 46.613537 -1.503376
24.150848 47.415066 -0.95653915
21.948051 -2.2850056 27.213497
25.070763 47.997395 -0.22782516
26.595366 -1.8364487 32.648796
29.370945 48.722477 4.6297932
29.799198 -1.5102081 36.365723
31.228691 -1.3691368 38.031471
34.628662 -1.043623 41.955383
37.498547 49.524456 14.221653
38.048729 -0.70608139 45.909821
40.788315 49.849052 18.121433
43.635445 50.130001 21.466469
43.68549 50.13501 21.449348
43.051239 -0.20245743 51.862801
45.947327 50.112377 24.182564
47.018402 49.541401 25.902142
48.676674 42.848015 32.135735
49.260555 37.826355 35.989189
50.28849 28.964596 42.676682
51.032299 22.47995 47.647301
50.242435 0.50724792 60.202126
51.830841 15.685499 52.790947
52.006535 14.082031 53.98896
51.886116 0.6694622 62.112518
52.446518 10.306696 56.933434
52.623322 8.8789883 58.064171
52.727592 7.8909988 58.796791
53.011932 5.5223732 60.562401
53.470551 1.4741859 63.575539
2.0364761 -0.012834549 1.3918686
2.4460373 3.7794685 -0.4759903
2.4189339 -3.4778004 3.9815407
3.2671623 6.8206787 -1.2486839
5.2221489 10.860451 -1.485714
4.9324799 -3.9641857 7.3557167
6.8451843 -3.7856007 9.7234917
9.4607086 -3.517334 12.656536
13.640324 27.903072 -1.6779709
14.04211 28.966484 -1.6979485
15.685444 32.231934 -1.7273483
17.633839 -2.7208366 22.215073
22.65534 -2.2253895 28.190521
22.789597 -2.2120495 28.243149
26.261345 48.425533 1.1364498
25.389229 -1.9455357 31.36227
32.723907 49.063179 8.8075905
31.055553 -1.3963528 37.922802
34.270897 49.205845 10.564297
36.846786 -0.82485962 44.694466
42.200886 49.998478 19.795853
41.668045 -0.33910561 50.417107
41.978355 -0.30851364 50.814064
47.468723 49.085957 26.960388
48.059082 47.904522 28.317383
46.261768 0.10418701 55.764923
48.621254 43.25555 31.916214
48.868904 41.235878 33.594322
49.327454 37.262703 36.484863
50.621799 26.040417 45.076111
52.136196 12.993158 54.966522
52.462227 10.289804 57.118149
52.511658 9.7837982 57.535942
53.128555 0.78181267 63.808441
2.3698654 -3.0202618 3.8221664
4.9033813 -3.9773331 7.5774803
7.1409683 -3.7464275 10.142769
7.8397484 -3.6775188 11.019642
10.735676 22.335087 -1.6085777
10.882019 -3.3872452 14.458557
12.7882 26.505468 -1.6679153
14.480598 30.133152 -1.7088356
14.208584 -3.0590477 18.436401
16.770676 34.732338 -1.7538109
21.018602 43.31403 -1.8558464
21.83474 45.010345 -1.8813
20.95046 -2.3937454 26.332039
24.780106 47.98016 -0.19643974
24.96484 48.073772 -0.063352585
23.025005 -2.1789856 28.765217
25.928614 48.382397 1.0401173
26.64488 48.4631 1.9169979
24.993359 -1.9947662 31.035439
30.979229 48.890961 6.8273849
33.020424 49.092297 9.3225098
33.64238 -1.1412086 41.098892
34.522949 -1.0443878 42.28006
34.726868 -1.0342293 42.414036
39.124542 49.694759 16.358566
39.251701 49.707218 16.610149
39.41605 -0.57154846 47.963882
40.76194 -0.43871307 49.520996
43.692841 50.145466 21.820267
41.788593 -0.33740044 50.721962
47.667427 48.804665 27.437347
48.470497 44.670479 31.002403
48.59692 43.491707 31.879623
48.938091 40.67094 34.190071
47.729645 0.24882698 57.728783
49.58062 35.136562 38.392685
50.869186 23.936695 46.819649
51.684631 16.928137 52.223076
51.960579 14.62763 53.915001
52.078182 13.52334 54.727898
2.3424339 -2.8421955 3.839365
2.4741096 -3.9782906 4.6917381
3.134407 6.831583 -1.1848679
4.8015785 10.781136 -1.476593
7.8596115 -3.6756783 11.177979
8.8566895 -3.5873699 12.386822
11.669201 -3.2996578 15.543869
14.008057 29.237602 -1.6875572
17.198792 35.821644 -1.7643795
18.039566 37.541771 -1.7946053
19.421665 40.317867 -1.8277874
21.204811 -2.3687992 26.803795
24.857925 48.081169 -0.022455215
29.826183 -1.5179596 36.821297
29.870205 -1.5136242 36.879829
38.15004 49.598316 15.53146
39.005684 49.682781 16.506893
40.487274 49.819004 18.168327
41.948925 49.973213 19.963562
43.706112 -0.13820457 53.059105
47.584534 48.948933 27.561813
48.446243 44.92831 31.069939
48.927742 40.704365 34.330681
49.029762 39.816879 34.957535
47.339455 0.22029686 57.361755
49.396255 36.759045 37.345913
50.069115 30.957478 41.719223
50.357521 28.483154 43.651085
50.571133 26.622059 44.950279
50.761757 24.898695 46.286301
50.829506 24.329628 46.796509
51.395817 19.430622 50.402649
51.975342 14.44058 54.200554
52.430141 10.639996 57.249199
52.138699 0.6938839 62.992195
2.1892853 -1.4876633 3.0014324
2.2185059 -1.6603355 3.0917187
2.2156372 -1.7036018 3.224823
2.5053253 -4.203907 5.0958023
3.6939316 -4.0969219 6.4381104
6.0925255 -3.8601952 9.2135468
8.6861343 18.833588 -1.5701637
8.7929649 19.13525 -1.5628338
8.8092804 18.943266 -1.5629425
7.7110291 -3.6904755 11.161297
8.8733521 -3.5758057 12.557537
10.115761 -3.4531097 13.902374
10.93219 -3.3726711 15.007149
12.112549 -3.2561016 16.287464
14.383678 30.480436 -1.697197
15.064713 31.774637 -1.7234573
15.166523 -2.9647789 19.861687
15.450821 -2.9367523 20.224777
20.477261 42.801647 -1.8435841
20.919437 43.598621 -1.854084
25.418627 48.316994 0.76134682
29.554323 48.75005 5.5049362
30.874746 -1.4045944 38.226936
34.958652 49.27322 11.930183
35.839218 49.37019 12.936447
39.666874 49.73785 17.433517
38.739731 -0.63862038 47.560493
41.997612 49.967873 20.136898
44.971817 50.250263 23.681278
44.312935 -0.078510284 53.984375
47.356998 49.221966 27.194046
48.561203 43.981895 32.024002
51.362755 19.835287 50.274712
51.820412 15.895176 53.276756
52.115837 0.69145393 63.161758
52.660049 8.6889477 58.88829
52.948429 6.0945988 60.729744
53.049889 5.2418156 61.490906
2.1490936 -1.0194283 2.836628
3.321907 -4.1237202 6.1568451
5.4488602 12.567591 -1.4927502
7.2446404 16.296305 -1.5360126
7.7059288 16.967367 -1.5367584
7.2215538 -3.7389565 10.796131
8.6469574 18.905645 -1.5694141
8.000721 -3.6619644 11.591286
10.369164 22.445072 -1.6108627
9.7289543 -3.5015945 13.756844
11.602959 25.05851 -1.6306496
13.950153 29.874941 -1.6971302
19.135246 -2.5632496 24.689331
22.574665 -2.2238979 28.7855
25.778938 48.36726 1.2967148
24.75465 -2.0187874 31.294502
27.094585 -1.78792 34.081551
27.159098 -1.7815475 34.151093
34.082222 -1.0983524 42.24501
36.493279 -0.86038589 45.027573
38.908287 -0.61206627 47.911537
43.36618 50.102764 21.923775
46.507824 49.879345 25.89962
47.346626 49.239437 27.400211
48.582943 43.713375 32.256454
48.664181 43.023819 32.834621
50.045612 31.116724 41.831696
50.076996 30.876717 42.176922
50.25943 29.384073 43.268288
50.638775 26.124895 45.787766
50.800705 24.728886 46.840965
50.809772 24.657501 46.931046
50.879295 24.051708 47.353821
50.897293 23.882938 47.408257
51.680016 17.141865 52.531258
51.699165 16.912476 52.824562
52.368706 11.128515 57.125076
52.542049 9.73699 58.262413
53.16737 4.2689075 62.439537
53.412758 2.15905 64.061729
1.9134941 1.2170849 1.246954
2.1420898 -0.91536903 2.9929523
3.2652054 -4.1295662 6.384119
3.4601974 -4.1202755 6.4978962
9.1992455 -3.5439129 13.24929
10.787186 23.716986 -1.6214447
11.692841 25.575983 -1.6432381
11.299389 -3.336607 15.63657
12.810287 27.741003 -1.6599579
15.098396 -2.9618378 20.224453
25.58308 48.357815 1.2556934
24.566528 -2.0273705 31.155632
29.615347 48.755688 6.0170097
28.326674 -1.6564445 35.712921
36.340363 49.419281 13.938007
38.273712 49.610081 16.183094
38.965176 -0.60653687 48.071617
47.519852 49.050663 27.88176
49.187164 38.650215 36.394997
49.249794 0.40841103 60.064194
50.602936 26.350353 45.634224
50.644028 26.014162 45.985283
51.098724 22.097179 48.956779
51.212955 21.128502 49.774544
51.38311 19.638363 50.773705
51.614662 17.671459 52.415459
51.966408 14.619143 54.611618
52.360401 11.240496 57.257813
52.792828 0.75802612 64.2258
53.39587 0.8175106 64.957268
53.478115 1.6293602 64.643166
1.8669815 1.8729973 1.052599
3.4333229 8.9874935 -1.3679199
3.5206451 8.9888058 -1.3828831
4.2297401 10.542704 -1.4540176
10.093231 22.471737 -1.5949707
10.552956 23.392014 -1.6160088
9.74543 -3.5001755 14.016975
11.382557 25.08559 -1.6359596
11.596542 25.526421 -1.6411095
11.32502 -3.3442898 15.853172
13.617004 29.70886 -1.6797695
14.47007 -3.0340137 19.632629
20.969931 44.598827 -1.8664436
22.013515 46.275188 -1.5772038
23.783295 -2.1148758 30.426022
26.630325 48.460949 2.7194633
28.495735 -1.6398716 36.032501
33.765263 49.165043 11.068031
33.207279 -1.1849785 41.549648
40.40263 -0.46481133 49.892326
43.034634 50.069813 21.807251
43.415764 50.107319 22.377022
45.82114 50.155212 25.229069
45.321526 0.010450363 55.76577
47.919464 48.389217 28.85569
48.01149 48.165661 29.200386
46.256481 0.1128788 56.72831
48.387928 45.472263 31.346436
48.524803 44.277859 32.170456
48.911522 40.973045 34.82077
49.129974 39.156185 36.082748
47.277004 0.21353912 57.980568
49.317444 37.549683 37.347282
49.490753 36.057026 38.481506
49.764084 33.629673 40.397232
50.444611 27.852978 44.775078
50.555908 26.80751 45.567459
49.725407 0.45521164 60.77095
50.023018 0.47440147 61.269089
51.116348 21.990175 49.27906
51.842079 0.65390396 63.404266
53.149521 4.4889755 62.629173
53.405861 2.2848797 64.323814
2.0043945 3.9928932 0.087608337
3.3117676 -4.1252022 6.7034416
3.4866524 -4.107872 6.8286724
7.700573 17.785595 -1.5376854
11.379128 25.258949 -1.6261005
12.077042 26.669018 -1.642868
12.794411 -3.1994858 17.801617
15.662121 33.927967 -1.7390099
14.982822 -2.9834747 20.303463
17.447937 37.674129 -1.7720757
16.093452 -2.8739281 21.662941
19.380157 41.535114 -1.8184395
20.077606 42.998142 -1.8352623
21.076267 -2.3722172 27.556953
22.115208 -2.2797165 28.739571
22.719481 -2.2099991 29.405205
27.676498 48.564053 4.1002159
29.493643 48.743404 6.1953125
32.363899 49.016613 9.5339127
37.523071 49.535755 15.59597
40.77153 49.846317 19.354
43.4963 50.125164 22.642059
44.403179 -0.080196381 54.721817
48.007404 48.188492 29.407555
48.757561 42.316147 33.892216
48.768169 42.322735 33.948624
49.03067 40.058388 35.649864
49.360252 37.129051 37.852909
50.44339 27.79023 44.894272
49.687622 0.44116402 61.042358
51.132866 21.871134 49.494629
51.308609 20.431232 50.51931
51.617596 17.700182 52.684196
51.709476 16.99453 53.215614
51.809086 16.152248 53.93969
52.031143 14.221321 55.307701
52.385571 0.71758652 64.042747
53.000294 5.7792263 61.675568
53.145744 0.792593 64.946022
2.0110703 4.4876823 0.0047016144
2.0538101 -0.16302872 2.8442917
2.272377 -1.9607468 4.2001419
3.3986855 9.3133316 -1.356636
4.6960068 12.091335 -1.4759941
5.5762329 13.980906 -1.4872742
8.2919312 19.373894 -1.5623951
10.265797 -3.4390965 14.993088
12.899216 28.747292 -1.673151
12.920486 28.634884 -1.6634636
16.490852 35.914307 -1.7593155
16.559216 36.080444 -1.7509842
23.463491 -2.1367931 30.52668
26.076164 48.39603 2.2917709
24.082781 -2.0755463 31.097206
26.967028 48.483936 3.3379517
26.022669 -1.8941994 33.408188
35.093765 49.295853 12.956291
39.532814 49.723843 18.172764
38.363968 -0.66636848 47.947266
41.101166 49.888756 19.896919
38.738255 -0.62932396 48.257805
39.882202 -0.51649094 49.660835
40.057167 -0.49922752 49.866249
47.02578 49.550243 27.376709
47.904556 48.420223 29.19561
45.641121 0.051864624 56.343269
48.360573 45.758335 31.400772
48.85775 41.585686 34.694099
49.039169 40.007935 35.810898
49.677963 34.417568 40.046936
49.030643 0.3762207 60.395378
50.490993 27.439449 45.479454
50.94907 23.569466 48.359276
51.269314 20.802938 50.416061
51.416702 19.533773 51.381561
51.775631 16.351952 53.777855
51.900097 15.281891 54.601364
52.021732 14.333519 55.390114
52.130825 13.40225 56.142258
52.26178 12.182354 57.039795
52.349297 11.525295 57.593613
52.568275 9.5518742 59.088219
52.319569 0.70072556 64.309052
53.460461 0.81334496 65.607849
1.9513855 0.76459312 2.3842201
1.9786491 0.61805344 2.5046158
2.4088593 -3.1784725 5.3639107
6.1677551 15.437746 -1.5018158
7.8817253 18.736031 -1.552784
15.139065 33.678986 -1.7274723
16.705936 36.599487 -1.7547951
16.805927 36.773483 -1.757164
19.992809 43.255592 -1.8437729
17.801197 -2.705719 24.024658
24.479124 48.211914 0.65068626
26.502872 48.437885 3.0837097
36.218216 49.396664 14.392075
36.259377 49.400688 14.488739
37.076984 49.481411 15.402702
39.234795 49.704426 17.884544
38.664711 -0.63673782 48.355591
41.155766 49.893929 20.211884
39.514145 -0.56304741 49.448372
43.094498 50.075237 22.430191
43.315628 -0.18794823 53.93914
45.410778 0.028995514 56.230606
48.334923 46.023724 31.438538
48.652851 43.272419 33.458473
48.781921 42.252106 34.259331
50.102676 30.798311 43.004753
48.81863 0.35516357 60.311562
50.227108 29.825054 43.808464
49.320831 0.40472031 60.898697
51.813763 16.16169 54.200165
52.030075 14.285353 55.554329
52.123543 13.488178 56.201981
52.194012 12.804842 56.775734
52.336159 11.571548 57.664146
52.35183 11.45454 57.849785
53.170864 0.78468704 65.358742
53.437023 2.1713123 64.777344
2.5497704 7.4017754 -0.88155556
2.3632355 -2.7717342 5.1290779
4.2441559 11.614464 -1.4556923
3.7864838 -4.0888023 7.7146721
5.4546738 -3.9141998 9.7436867
7.6832581 -3.7042599 12.278679
12.649155 28.65774 -1.657671
14.305626 32.078709 -1.7075615
19.640762 42.905327 -1.8257713
23.884445 -2.095541 31.352108
26.83395 48.470501 3.5288239
27.407707 48.537075 4.3082809
25.997112 -1.8869686 33.725288
28.672615 48.661892 5.800703
30.553572 48.847515 7.9907894
29.033119 -1.597477 37.338165
36.757481 -0.82517815 46.38459
39.016403 -0.60221291 48.973694
39.703568 -0.54449844 49.834496
42.437695 50.010197 21.924484
42.36039 -0.28230095 52.923988
43.685024 -0.14156151 54.507416
47.919788 48.426132 29.506584
48.251526 46.850056 30.926487
48.410294 45.412895 32.108654
48.511299 44.523098 32.677731
48.759651 42.498367 34.365288
49.066471 39.846901 36.331738
49.93681 32.33604 41.958473
48.527924 0.33638954 60.129639
50.678699 25.878481 46.965172
50.947342 23.547516 48.64344
51.18438 21.607208 50.196159
51.444275 19.374199 51.922249
51.931427 15.185371 55.141212
51.971531 14.834572 55.378769
1.8272629 4.2764168 0.39171982
1.8856812 1.3912258 2.2347736
2.4500465 7.2346935 -0.79684258
2.1283646 -0.62109947 3.7167015
2.8774681 8.7200127 -1.1495552
2.9180794 9.0586758 -1.1857338
3.2753067 -4.1293449 7.2898197
3.4190598 -4.1151714 7.4729424
4.4087715 12.242039 -1.4600201
4.9637871 13.349128 -1.4733353
4.8468628 13.322439 -1.4707947
5.0797272 -3.9614124 9.4972496
10.170067 24.043077 -1.6086254
14.401463 32.567818 -1.7002296
14.872559 33.683777 -1.7217636
16.003624 35.726604 -1.7486229
17.939056 39.771202 -1.7952881
17.289707 -2.746397 23.715443
19.991547 43.86208 -1.8345146
20.135231 -2.4656601 27.121788
20.58963 -2.4207935 27.625202
29.784637 -1.5134315 38.409019
32.810596 -1.2248802 41.960884
34.067196 -1.1008835 43.440964
37.109104 -0.79063797 46.984947
39.927361 49.762379 19.091927
44.035019 50.167759 23.872501
46.638588 49.83672 27.352386
48.311905 46.276287 31.538712
49.047691 39.93998 36.357368
49.413567 36.804531 38.824303
47.861572 0.27050018 59.497612
49.554203 35.670216 39.634171
47.94521 0.26863289 59.669182
50.01902 31.574188 42.713379
50.20919 29.962994 44.081024
50.348015 28.844921 44.882233
50.789352 24.940975 47.760796
50.914639 23.966099 48.596252
51.596302 18.011778 53.137459
53.050045 5.4937096 62.662224
53.298431 3.3580723 64.304451
53.44128 2.2268353 65.231255
2.0309677 0.25938225 3.271759
2.1308517 -0.67703819 4.0395355
2.3631096 -2.5942116 5.4778271
6.7352524 -3.7981911 11.607658
15.203197 34.617878 -1.7300415
15.754272 35.639107 -1.7431679
16.978287 -2.7873306 23.530083
23.404076 47.953655 0.076038361
24.045002 48.172787 0.70788574
28.129652 48.60812 5.3852463
37.34362 49.517315 16.238689
38.8022 49.661312 17.871124
37.13015 -0.78873062 47.207016
37.284309 -0.78347588 47.277847
41.957428 -0.31232452 52.80452
47.130779 49.494434 28.293262
45.994537 0.076059341 57.482651
48.77594 42.407257 34.699219
49.868717 33.008976 41.91246
49.930141 32.388687 42.357948
50.3703 28.609612 45.293419
50.511833 27.459072 46.069992
51.035385 22.960609 49.545891
51.656284 17.509491 53.595985
52.016647 14.412909 55.986954
52.453678 10.660971 58.902702
52.63839 9.1548119 60.036987
52.667122 8.9109154 60.241417
53.015423 0.77888489 65.772629
53.394562 0.80628395 66.171005
3.5288658 11.035622 -1.4098301
4.3028908 12.745598 -1.4583931
5.1945305 14.448984 -1.4896889
7.2818794 18.700428 -1.5298672
7.3799706 -3.7245731 12.425755
9.4871826 23.190271 -1.5928898
9.8618813 23.955366 -1.601902
10.18008 24.650696 -1.6096115
10.529755 25.215267 -1.6178322
9.2818794 -3.5469666 14.680351
11.744755 -3.2939663 17.669369
13.548687 31.403082 -1.6804581
14.935726 34.271347 -1.7238655
16.194107 36.816063 -1.744091
16.491531 37.367966 -1.7611771
17.649487 39.748913 -1.7890472
15.656837 -2.917923 22.201958
18.552937 41.51487 -1.8006687
17.370773 -2.738657 24.113972
22.525042 47.533726 -0.562397
23.8979 48.141659 0.63739586
25.252367 48.313969 2.2115574
25.533255 48.351627 2.6612968
30.142868 48.796459 8.0659447
30.485226 48.840427 8.3082924
30.724083 48.85384 8.7189064
30.452826 -1.4478168 39.566643
33.089607 49.087345 11.40451
42.657356 50.041527 22.63789
45.970032 50.11507 26.595806
49.169857 38.958241 37.482338
49.229595 38.544456 37.872963
49.358765 37.323593 38.683018
49.965981 32.100204 42.685974
51.086098 22.540291 49.953339
51.22316 21.376066 50.925377
51.476971 19.18034 52.541611
51.589554 18.125238 53.349106
51.747414 16.782898 54.461807
51.952118 15.105299 55.730507
52.147911 13.404076 56.942879
52.517429 10.158964 59.537178
52.830227 7.5361309 61.447395
52.893326 6.9042397 61.917702
2.5098572 8.5906601 -0.95019531
2.1462402 -0.66493607 4.3427067
2.4711456 -3.4582405 6.4919472
5.14748 14.55984 -1.4888191
5.9626389 16.233517 -1.5084381
8.1002998 20.722649 -1.5600014
7.3609314 -3.7366886 12.616631
9.729248 -3.5030365 15.459515
10.064766 -3.4699192 15.840256
12.572861 29.799534 -1.657486
14.131088 32.855789 -1.6947975
15.222084 35.176384 -1.7211571
15.375568 35.429562 -1.7347717
23.21645 -2.1619625 31.149895
26.456367 48.432606 3.8248672
27.814072 48.576668 5.3733044
28.778891 48.6618 6.5362129
27.091835 -1.7896328 35.742592
36.91143 49.474339 16.111107
37.240364 -0.78813553 47.599693
39.899208 -0.52572632 50.677216
42.521477 50.027988 22.63184
48.352455 46.109592 32.181808
48.449059 45.188984 32.870613
49.161404 39.154644 37.532463
49.208775 38.753544 37.874199
49.919399 32.548725 42.599861
50.438705 28.151955 45.883232
49.143738 0.39649773 61.607162
51.895905 15.618324 55.49604
51.914951 15.372732 55.709709
52.54171 9.979208 59.832069
52.614552 9.4321499 60.21418
52.732796 8.3262367 61.049217
52.993057 6.0847778 62.752716
53.114719 0.78837013 66.246925
1.6855316 4.1174946 0.88273048
2.4624405 -3.3482552 6.5967827
2.5038338 -3.8110085 6.8424664
3.5705338 -4.1109314 8.4079781
4.3203125 -4.0369453 9.2924862
4.5506554 -4.0040855 9.4677658
4.6611328 -4.0032558 9.6264267
6.5222931 -3.8195934 11.807022
10.57513 25.854031 -1.6196175
11.859013 28.607729 -1.6506596
10.765854 -3.3908463 16.84811
13.212448 31.308905 -1.6731262
13.92337 32.725498 -1.6901817
15.093956 -2.9738121 21.938381
15.247318 -2.9586582 22.093208
17.960091 40.90926 -1.7871819
19.647839 44.34103 -1.8277531
19.681713 44.532467 -1.8387241
23.118876 47.977543 0.23852921
23.238861 48.013046 0.36221886
21.117844 -2.3792667 28.88015
22.70425 -2.2126961 30.762489
26.956234 -1.7931614 35.81456
31.789217 48.968788 10.20553
33.441021 49.121658 12.237907
31.375809 -1.3670101 40.907436
31.525547 -1.3421154 41.002754
37.056343 -0.80642319 47.52961
42.757477 -0.23382378 54.264297
45.333046 50.242977 26.202011
43.750687 -0.13570595 55.302048
44.001289 -0.12107849 55.664558
46.410263 49.968124 27.599129
48.218063 47.299053 31.450485
48.522026 44.610729 33.580017
49.769096 33.964146 41.70937
49.915211 32.699638 42.637405
49.952198 32.393021 42.934731
49.976303 32.086468 43.100967
50.001282 31.866894 43.243591
48.639591 0.33662033 61.104843
50.69762 25.956549 47.736717
51.632816 17.917133 53.926575
51.968132 15.042967 56.184555
53.38187 2.7686863 65.447685
2.1432686 7.7753639 -0.57185364
1.9236526 1.2059841 3.1386662
2.3299255 8.3883057 -0.80446434
2.2708969 -1.6788578 5.4344025
5.8982468 16.622807 -1.4975452
7.0362244 -3.7590599 12.673065
8.881813 22.761028 -1.569355
7.8697891 -3.6767387 13.575447
10.957977 26.932205 -1.6191978
12.259628 29.594847 -1.6605091
15.275261 35.699699 -1.7329674
13.508327 -3.1203785 20.247238
19.73222 44.815472 -1.8346634
20.946875 -2.3963394 28.91008
24.537422 48.242897 1.9730549
25.135798 48.311977 2.6943989
25.616104 48.349365 3.2094898
24.390348 -2.0564671 32.867142
27.966908 48.591454 5.893013
28.114578 48.595882 6.1753101
27.698643 -1.7200375 36.843494
31.26516 48.916836 9.8608418
28.995504 -1.5919552 38.238567
32.928696 -1.2138767 42.851646
35.852722 49.359478 15.251431
34.998894 -1.009634 45.328148
36.06646 -0.89420509 46.547722
39.055843 -0.59927559 50.125267
41.765862 -0.33175659 53.190643
41.819592 -0.32648087 53.287186
43.367569 -0.17373466 55.110481
48.140244 47.771198 31.365936
49.762062 34.038097 41.7253
48.138382 0.28697586 60.733566
50.478485 27.779011 46.468651
51.147308 22.137995 50.93132
51.489544 19.164408 53.050377
52.072044 0.68518639 65.364334
53.024391 5.8793793 63.255577
53.228165 4.214262 64.538933
53.287907 3.6031189 64.949013
53.43095 2.3745117 65.900543
53.449078 2.2294426 66.070557
1.6265488 4.2770424 1.1275253
1.7398911 2.9246349 2.0985985
1.8423691 2.0510921 2.8111267
2.5315628 9.4915218 -1.0280895
2.6063881 9.8180809 -1.0693588
2.3009186 -1.8931313 5.8355427
4.6001129 -3.9995022 9.8728638
11.445805 28.315323 -1.6314201
12.990112 31.309521 -1.6783619
13.888824 -3.0829296 20.80938
14.549057 -3.0277767 21.522625
20.341141 45.965195 -1.6184387
27.397974 -1.749754 36.541252
31.735966 48.963161 10.567915
32.213287 49.000217 11.130058
31.804823 -1.3249512 41.731209
37.407356 49.522892 17.133987
40.210083 49.79945 20.437557
37.870979 -0.71628761 48.840096
43.710777 50.144848 24.603958
47.165306 49.483444 29.210075
48.085739 48.04483 31.235451
48.198051 47.473343 31.794266
48.301971 46.647236 32.327087
48.684315 43.284718 34.973686
49.032349 40.267273 37.158894
49.334427 37.777618 39.187752
49.343277 37.689434 39.19009
49.354095 37.595673 39.258232
49.557236 35.848354 40.598255
49.764084 33.969563 41.967682
49.913651 32.685299 42.964714
49.965309 32.336864 43.282791
50.133938 30.799549 44.459091
50.402351 28.476473 46.163216
50.771996 25.298016 48.606499
52.084408 14.100082 57.216125
51.500046 0.61859322 64.809578
52.205425 0.69821548 65.673683
1.6663895 3.4998112 1.8161392
1.9931297 0.77153397 3.8849754
2.1818428 -0.84141922 5.177103
2.8612061 10.854628 -1.2544708
4.7603111 -3.9839363 10.342232
6.8018951 -3.7924957 12.700531
9.8532982 25.405807 -1.5935574
10.995407 27.704073 -1.6209831
10.308083 -3.4463997 16.692371
13.739456 33.182426 -1.6968193
15.841362 37.551414 -1.7374611
17.630337 40.941048 -1.7801476
21.039165 46.813564 -1.1753006
23.142996 48.072659 0.72573471
28.257595 48.609676 6.7133331
30.644102 48.855263 9.4667931
30.975338 -1.4070301 41.016052
35.552013 49.329586 15.154083
33.795586 -1.128664 44.246483
36.83065 49.455708 16.718845
37.651955 -0.74803925 48.684044
43.078804 50.08234 24.032181
40.935562 -0.42406654 52.596504
43.043228 -0.21601677 54.994232
43.736481 -0.13758659 55.839928
48.080215 48.10675 31.31958
48.273758 46.823284 32.29882
48.669121 43.430599 34.943283
48.773632 42.60928 35.525761
49.057915 40.098675 37.564663
49.203098 38.935715 38.453003
49.509552 36.283844 40.400681
49.909973 32.764343 43.159431
50.081242 31.284649 44.259148
50.853992 24.635939 49.347076
51.05217 23.024843 50.620506
51.656578 17.703682 54.50705
51.826477 16.349941 55.659424
52.487156 10.582096 60.089935
53.132896 5.0211239 64.317917
1.6733246 3.4824219 2.0572147
1.7151489 3.2003498 2.2260876
3.3600044 12.347637 -1.4145794
3.6391907 12.966599 -1.4510994
3.4571381 -4.1126537 8.9508018
6.2779236 18.471876 -1.5180473
6.0059929 -3.8611641 11.973804
14.048424 -3.0674896 21.353016
17.157982 40.266987 -1.7791634
18.630802 43.459236 -1.8048115
23.283365 48.112652 1.0214272
21.172503 -2.3644772 29.696808
25.059853 48.304111 3.0313587
22.887691 -2.1951008 31.56955
26.573156 -1.8415432 35.974976
31.187595 48.898777 10.186207
30.17597 -1.4860611 40.250244
30.867523 -1.4177856 41.025059
34.675385 49.242985 14.236389
33.08844 -1.1884708 43.514038
37.512878 49.533043 17.559254
35.379089 -0.9624958 46.273399
40.144547 49.782681 20.650467
41.242565 49.901039 21.991364
42.174011 49.992931 23.108154
42.897514 -0.23059845 55.056519
48.616966 43.998745 34.686188
48.86824 41.84388 36.373386
48.885262 41.598755 36.495346
48.93499 41.282986 36.874741
49.652916 35.03294 41.497269
50.150681 30.789307 44.72229
50.219307 30.115826 45.256401
50.396511 28.582909 46.384865
50.772015 25.356129 48.875679
51.259609 21.259014 52.073723
51.619637 18.172077 54.493828
51.808342 16.522587 55.616989
52.176857 13.349838 58.033722
52.626583 9.4095879 61.133156
53.163548 4.7747364 64.599922
53.255127 3.9842987 65.191368
53.608349 0.9449749 67.515984
1.5969582 5.8222427 0.59560013
1.5492706 5.1890888 1.0031471
1.7288666 3.1217804 2.498806
2.1422424 -0.53545189 5.2217636
6.4762955 -3.8248158 12.54295
8.4489212 -3.6302681 14.981487
11.075729 28.440193 -1.6336441
11.409245 28.914793 -1.6314011
12.219856 30.60581 -1.6509399
10.81974 -3.3962345 17.672325
10.974346 -3.3709545 17.87709
14.927612 36.125824 -1.7260513
16.084095 38.40464 -1.7537575
16.088486 38.348301 -1.7437763
17.214584 40.639973 -1.7708473
18.02483 42.336597 -1.8003922
19.015408 44.543953 -1.8244495
20.031815 -2.4871731 28.458115
23.40209 -2.1444931 32.351883
25.775616 48.374546 4.0985985
26.397062 -1.8590946 35.974106
29.340027 48.716282 8.2277164
29.789526 -1.5243225 39.949425
30.152555 -1.4884815 40.34919
33.479767 49.124763 13.115013
37.854942 49.566612 18.173836
38.574684 49.637623 19.034599
39.674992 49.736198 20.278767
38.022362 -0.70185852 49.603592
38.484871 -0.66616249 50.01786
42.710629 50.045757 23.884132
41.334648 -0.38500404 53.431778
47.745308 48.821674 30.877663
48.439568 45.570545 33.728462
48.767231 42.663826 35.946953
49.861336 33.231667 43.065109
50.112442 31.083412 44.774895
50.159935 30.671982 45.07473
50.777725 25.335405 49.044548
51.17054 21.974735 51.719315
51.404987 19.945259 53.206108
52.177074 13.390232 58.230385
52.767975 8.2886887 62.040054
53.161282 4.8231144 64.71846
1.7115631 3.2944527 2.4947624
2.1234741 -0.24619865 5.2225895
3.3687553 12.8619 -1.4206581
4.3850441 -4.0213242 10.31242
7.5949593 21.652634 -1.5403404
8.126709 -3.6621933 14.753975
15.627392 37.721058 -1.7330856
18.678215 44.054131 -1.8165932
21.137585 47.219311 -0.76542664
24.473085 48.245884 2.7204018
22.219902 -2.2613297 31.169125
27.693789 48.563755 6.4337692
33.404568 49.127224 13.216202
31.893841 -1.3167744 42.543381
34.7705 49.252071 14.699829
35.325989 49.306847 15.394402
39.501839 -0.55600166 51.498047
47.455021 49.192043 30.399956
49.168118 39.333443 38.669884
49.922569 32.729649 43.582863
50.055714 31.587339 44.474648
50.656719 26.503757 48.370537
50.990673 23.537178 50.603722
52.060482 14.435787 57.658501
52.863293 7.4348011 62.977303
52.830315 0.7492485 67.076805
53.535526 1.7333565 67.318893
4.0628471 14.664759 -1.4656887
7.7611389 22.239935 -1.5446529
10.035805 -3.4738789 17.078915
11.616318 -3.3179703 18.999359
16.672951 40.228737 -1.7687111
19.258663 45.276436 -1.7725487
18.608952 -2.6279564 27.221859
23.439335 -2.1512718 32.859901
23.954035 -2.0903931 33.420685
30.166889 48.797588 9.5227528
33.176456 49.09457 13.057674
33.723648 49.148617 13.6511
31.410122 -1.3647251 42.220749
40.002506 49.768238 20.979198
45.585846 50.218204 27.568386
46.617432 49.859936 29.062561
44.612663 -0.061826706 57.616066
50.058594 31.592461 44.63166
50.206463 30.406839 45.540016
50.384781 28.877535 46.737015
51.617035 18.265841 54.806465
52.39592 11.487202 60.04422
52.81496 7.8696346 62.747093
52.946934 6.7412052 63.648514
53.599102 1.1253433 67.920761
2.7833939 12.226343 -1.270359
2.8721733 12.4526 -1.3024254
3.0231552 12.575235 -1.3392296
4.7529526 16.293308 -1.482563
5.767067 18.512461 -1.5071411
7.8384781 22.492884 -1.5566406
7.9515877 22.822029 -1.5494785
8.6007576 24.247059 -1.5652161
11.010731 29.071516 -1.6230507
13.835667 34.64492 -1.6907406
16.656849 40.344643 -1.7685127
15.219353 -2.962492 23.304958
18.337521 43.901474 -1.7990875
18.424271 44.099762 -1.8011971
18.493019 -2.6294174 27.164932
21.115845 47.334171 -0.59854889
22.791828 -2.2052307 32.233143
25.368185 48.33395 4.069643
25.705708 48.36729 4.4302483
26.478573 48.433384 5.4777641
27.584843 48.542656 6.661293
27.184841 -1.7716961 37.347481
28.133944 -1.6781216 38.556259
28.387226 -1.6631775 38.848888
29.470947 -1.5461102 40.038246
34.320011 -1.0675449 45.651253
36.821625 49.454124 17.50914
36.601471 -0.84242058 48.342506
39.03727 49.67281 20.052479
37.450062 -0.76878929 49.398232
38.635231 -0.65185165 50.811699
43.155632 50.079182 24.924118
43.593994 50.132542 25.367161
48.063652 48.172531 32.182991
49.480057 36.613228 41.021545
49.765125 34.262787 42.905434
50.232239 30.232929 45.930984
50.30331 29.515507 46.375069
50.559483 27.314024 48.073677
50.611942 26.958616 48.397209
50.787872 25.431931 49.494926
51.383415 20.314657 53.447731
51.425537 19.951582 53.721825
51.782188 16.899456 56.146172
51.804337 16.698097 56.24218
52.554585 0.73181343 67.071922
53.044296 5.9415131 64.465263
53.087002 5.6461449 64.613647
53.351231 3.3884792 66.426285
1.490139 6.5587177 0.6899929
2.0695801 9.9635754 -0.71542549
3.4960861 13.943417 -1.4452858
3.5105133 -4.1181812 9.8716469
4.5632095 16.226667 -1.4684048
5.49263 18.13262 -1.4907665
7.3099899 -3.7432728 14.357895
9.3379593 25.906832 -1.5931473
10.154594 -3.4523678 17.522293
10.551479 -3.4132767 18.070957
11.266171 -3.3527527 18.850403
13.361427 33.96241 -1.6796989
13.410984 -3.1310673 21.385399
15.912609 -2.8841705 24.274574
20.415173 46.898502 -1.0051537
19.873955 -2.4933186 28.983963
21.823944 -2.3009548 31.342194
24.632166 -2.0237999 34.59037
32.465858 49.024128 12.593315
31.434946 -1.3624916 42.503319
32.535759 -1.2538528 43.77581
35.648197 49.348236 16.298492
40.369415 49.814075 21.891884
41.533508 49.918903 23.254723
43.128807 50.076344 25.107956
48.260124 47.15559 33.202583
48.373035 46.274002 33.895813
48.535763 44.770367 34.954323
48.887543 41.735294 37.231785
48.993347 40.921844 37.9105
49.49699 36.515507 41.354622
49.631538 35.361088 42.255569
49.982689 32.399246 44.376503
52.328739 12.202692 59.771309
52.321693 12.290365 59.849976
52.573784 10.029982 61.552925
53.410709 2.796032 66.910713
53.366558 0.80181122 68.114502
1.6714096 3.6914597 2.9345169
2.282299 -1.4947395 6.8135033
6.5484962 20.477821 -1.5264053
5.7394485 -3.8983421 12.614525
7.1105957 21.676025 -1.5399857
6.6670113 -3.796711 13.646729
8.1642494 23.730154 -1.5652008
8.8409462 -3.5822048 16.21283
9.788868 -3.4886208 17.280952
11.874725 31.436922 -1.6445961
14.501659 36.723141 -1.7076702
12.680973 -3.2032852 20.737595
12.878094 -3.1837616 20.883659
14.985291 37.563885 -1.7191162
16.157753 40.050655 -1.757431
20.609879 -2.4207706 29.934273
21.443167 -2.3487244 31.061378
24.490711 48.247017 3.44174
26.438885 48.429199 5.7483025
27.419149 -1.7589931 38.045597
28.400408 -1.6520634 39.137596
32.760319 49.063068 13.132313
32.173386 -1.2796764 43.482948
36.273426 49.409748 17.239746
37.074478 49.488865 18.104836
38.418419 -0.66341782 50.810745
42.686028 50.04253 24.776024
43.590981 50.131924 25.736435
41.38343 -0.38092232 54.339561
41.998653 -0.32022858 55.076088
44.670063 50.238354 27.066154
43.089172 -0.20248985 56.266602
45.357639 0.021291733 59.008934
47.946625 48.477276 32.096729
48.098526 48.126274 32.490692
48.42067 45.799568 34.376472
48.853195 42.182735 37.24194
49.173378 39.333076 39.377472
50.122318 0.49147797 64.586784
51.666729 17.94179 55.612282
52.017956 14.931349 57.977554
53.177647 4.9288158 65.499672
53.467018 0.82162285 68.408852
53.619549 1.0327873 68.44104
1.4398346 6.0853195 1.2262535
1.6768723 3.6708946 3.0926437
1.9911537 10.535515 -0.69729996
2.592968 -4.1303005 9.0319214
8.9621201 25.697071 -1.5848198
9.8341331 27.469898 -1.5957756
9.1379318 -3.5531158 16.813782
13.068172 34.054928 -1.6735287
13.269524 34.452591 -1.6783524
21.154804 47.636292 -0.10416031
23.933212 -2.1030884 34.077721
24.046909 -2.0817928 34.177166
27.427879 48.536705 7.0614548
25.69253 -1.9294701 36.130692
28.065994 -1.6953011 38.963806
28.520409 -1.6503811 39.40834
32.68145 49.045055 13.250763
30.632307 -1.4420261 41.940247
34.77869 49.25211 15.599037
37.34729 49.505619 18.562202
37.996544 49.56966 19.351471
40.844078 49.860718 22.678993
46.0648 50.113422 28.98542
51.090435 22.938137 51.993279
52.182396 13.529339 59.119881
52.27375 12.667006 59.834366
51.791733 0.64600372 66.731064
53.504353 2.1609039 67.849869
1.686203 9.3304062 -0.22613907
1.9954834 1.0556564 5.3070145
4.1553726 16.182211 -1.4696045
5.5525665 18.987322 -1.4931412
6.7546844 -3.7883854 14.123711
9.36409 26.662199 -1.5846634
10.632656 29.430479 -1.6254025
12.912849 34.122208 -1.6802826
14.246731 36.732635 -1.7022133
16.892445 42.17897 -1.7658958
15.074219 -2.9774628 23.877251
22.620518 -2.2226601 32.639954
22.705551 -2.214283 32.751583
26.229355 48.408253 5.810627
28.722178 -1.6206398 39.894409
32.591667 -1.2387352 44.361069
35.064056 49.290127 16.150436
33.708588 -1.1385822 45.682381
40.437004 49.820301 22.481724
40.891357 -0.42979622 54.127434
41.588638 -0.36094093 54.886635
44.064602 50.17828 26.733627
47.794731 48.763374 32.066597
48.071419 48.187901 32.801903
48.602776 44.382999 35.804211
47.860054 0.2579689 62.184349
50.767544 25.671913 50.128181
50.894409 24.557266 50.856407
51.729397 17.476168 56.364708
51.735405 17.43079 56.433624
51.027893 0.58056641 65.966713
51.924034 15.807497 57.673729
53.038784 6.2029552 64.952042
1.3955688 7.7266445 0.60219955
1.460453 5.5932503 1.9461842
2.5441666 -3.6423187 9.0254021
13.058418 -3.1765785 21.749687
13.235878 -3.15909 21.97731
17.667805 -2.7115879 27.046669
20.108009 -2.4707832 29.903099
20.365536 -2.4553909 30.174675
24.15696 48.203571 3.5837593
21.809635 -2.3129177 31.906204
22.196892 -2.274744 32.40427
24.402992 -2.0470066 35.002632
24.81296 -2.0166225 35.508873
26.43857 -1.8560905 37.283257
36.925961 49.463673 18.491608
38.866695 49.665249 20.747105
39.222641 49.690323 21.174557
43.057632 50.068836 25.586102
41.744469 -0.33568954 55.273514
49.827625 33.879761 44.031929
50.031151 32.12307 45.346481
50.326504 29.502356 47.389153
50.59409 27.273848 49.026382
51.225052 21.859426 53.247086
51.390236 20.413723 54.221703
52.054516 14.707798 58.638939
52.819225 8.1347637 63.704201
53.112225 5.4977303 65.562508
53.225353 4.5255909 66.313049
53.423012 2.8351536 67.661537
2.3837585 12.814547 -1.1151886
2.0457993 0.59994125 5.9988728
3.3176537 15.016422 -1.4265652
8.2803497 25.111486 -1.5594463
9.8897552 28.395758 -1.5981483
10.480373 29.514982 -1.6222439
9.3659325 -3.5409946 17.464687
11.179398 31.019209 -1.6391525
11.984863 32.656143 -1.64851
10.898785 -3.379734 19.316238
13.740639 36.327217 -1.7008438
18.821186 46.004375 -1.4973259
21.753235 47.956921 0.90268707
22.38327 48.038433 1.6892052
24.078033 48.195728 3.5596199
22.001263 -2.2841892 32.394184
22.889263 -2.206522 33.33548
25.220997 -1.9663925 36.091721
28.183449 48.610874 8.3966446
31.543415 48.932323 12.412289
35.495239 49.332409 16.959942
33.15506 -1.1934967 45.375252
36.689972 49.450378 18.285149
40.534134 49.819553 22.926392
38.449615 -0.66102791 51.643837
41.407139 49.905712 23.936447
42.557129 50.029247 25.28186
40.988541 -0.42052078 54.604408
48.878983 42.067993 37.906727
49.309158 38.3778 40.790298
49.454216 37.029167 41.746216
47.948521 0.27639389 62.705978
50.441376 28.524179 48.192574
50.8536 24.978016 50.909401
51.210423 22.020798 53.314812
51.357456 20.727009 54.150093
52.652451 9.6050797 62.769814
52.98727 6.6938457 64.833435
53.30621 3.9687424 67.021088
53.56464 1.6442165 68.721947
53.647507 0.93412209 69.280693
1.5832596 9.9307251 -0.17941284
1.733448 3.3133602 4.062397
2.4717827 13.114649 -1.1616592
1.9285011 1.6442051 5.3885937
2.6083107 -4.1414547 9.6914864
3.770546 16.409321 -1.4616394
3.0153084 -4.1577816 10.197063
5.8613281 -3.8770695 13.685646
8.1575165 25.258209 -1.5569954
9.0446815 26.863068 -1.5780678
7.6152382 -3.7139969 15.692867
10.764374 30.414097 -1.6294804
10.941902 30.854897 -1.6338482
11.500771 -3.3204632 20.180374
14.348293 37.785301 -1.7057343
19.11021 46.462337 -1.2321053
19.252842 46.548481 -1.1972961
21.119946 47.801502 0.3683567
21.619118 47.931835 0.8864727
22.051529 47.995583 1.3745155
26.860941 -1.8148003 38.228165
30.981422 48.876827 11.798779
34.057671 49.190395 15.453514
34.775414 -1.033741 47.442543
41.43924 -0.37617683 55.282684
46.885719 49.744205 30.905602
48.42189 46.037136 35.065338
46.524727 0.12570953 61.186485
49.959412 32.72657 45.276077
49.711254 0.4502449 64.880234
52.083035 0.68431091 67.643883
52.693523 0.7344017 68.473701
52.764683 0.75146484 68.56356
53.134995 5.3954716 66.145302
53.356853 3.5487347 67.427544
1.4632492 9.3061485 0.11027145
1.3868866 9.1123791 0.30158043
1.3786392 6.3880901 1.8279686
1.6795044 3.8248577 3.9259796
1.8858566 2.021986 5.1580353
2.6191711 13.948298 -1.2606506
2.3742294 -2.0658951 8.4344978
4.1727448 17.484825 -1.461628
6.49757 22.049099 -1.5273094
8.7556305 26.710907 -1.5716743
10.746307 30.708805 -1.629467
10.793442 -3.3904057 19.513451
12.667561 34.523609 -1.6655293
15.523964 40.268196 -1.7441177
16.795139 42.832596 -1.7646408
16.807362 43.109024 -1.7652569
15.207573 -2.9548359 24.707821
23.276184 48.116203 3.0772629
24.186813 48.216141 4.1082458
21.899879 -2.3044147 32.477272
22.122879 -2.2724609 32.852562
28.078754 48.590118 8.7099743
28.291122 48.62125 8.8145046
29.60812 48.741146 10.378864
30.814035 48.870094 11.906513
29.725555 -1.5221252 41.64756
29.902599 -1.51474 41.90139
36.123299 49.394096 18.030621
35.247704 -0.97716522 48.085922
35.779366 -0.93477821 48.739616
38.425594 49.621235 20.797249
37.252075 -0.77939606 50.462608
46.002312 50.142593 29.814617
48.046295 48.31786 33.409431
48.288605 47.222614 34.366512
49.862251 33.591759 44.771584
48.456161 0.31618309 63.593124
50.392357 29.013239 48.180992
50.461422 28.428925 48.681503
49.639023 0.43289185 64.998741
50.891758 24.725697 51.511726
51.150326 22.589567 53.157967
51.432014 20.076172 55.063408
50.91024 0.55833817 66.48584
51.087627 0.58589172 66.68779
51.582394 0.62461472 67.328606
52.378437 12.00404 61.156731
52.312107 0.70671272 68.138176
53.267578 4.3705006 67.087624
2.1144943 0.17751694 6.7644901
3.1640358 15.621258 -1.4158955
8.1032028 25.710136 -1.556406
8.843544 26.992199 -1.5839252
7.8385353 -3.6922283 16.260384
9.6189461 28.751242 -1.6027946
8.5467224 -3.6123066 17.109684
11.64286 32.796646 -1.6413536
12.118771 33.623596 -1.6626167
13.909111 37.306129 -1.6957016
12.668987 -3.2154999 21.858467
15.542095 40.613792 -1.7449417
16.042328 41.789856 -1.7471695
17.703732 45.064194 -1.7421951
16.311993 -2.8559933 26.110962
18.693497 46.296124 -1.3098831
20.170937 47.436348 -0.30057335
21.48963 47.938236 1.1111279
21.852379 -2.2992611 32.656498
25.234333 -1.9756336 36.686691
30.201399 48.809521 11.323906
27.87392 -1.7151127 39.73288
30.663673 48.855137 11.869789
38.825203 -0.62436867 52.546532
40.103153 -0.50834274 54.086479
