ply
format ascii 1.0
comment PCL generated
element vertex 1590
property float x
property float y
property float z
element camera 0
property float view_px
property float view_py
property float view_pz
property float x_axisx
property float x_axisy
property float x_axisz
property float y_axisx
property float y_axisy
property float y_axisz
property float z_axisx
property float z_axisy
property float z_axisz
property float focal
property float scalex
property float scaley
property float centerx
property float centery
property int viewportx
property int viewporty
property float k1
property float k2
end_header
138.71294 138.54866 27.123016
119.39279 135.88136 30.490936
87.951714 131.58046 38.772514
127.7817 136.84227 15.127853
181.59357 144.28993 7.0558319
158.772 141.21805 16.586823
128.25758 137.08559 27.561493
67.936287 128.84886 44.493645
70.343559 129.11552 39.445015
144.51729 139.29803 22.450867
171.03021 143.25761 38.921432
124.76889 136.73639 37.502991
120.81076 135.88074 16.401978
75.466614 129.7534 33.660873
92.683762 132.14917 31.986618
19.098419 121.98649 44.55127
38.62867 124.72925 44.421989
103.70152 133.59747 24.936874
107.41213 134.31693 38.891396
102.41635 133.72174 46.423355
164.74094 141.98615 11.603012
121.98595 136.33203 36.569321
116.13811 135.37183 26.814331
139.73859 138.80855 35.281555
145.90848 139.72035 38.434586
91.016525 131.8358 26.414963
106.96241 134.02634 22.867203
147.15686 139.52777 12.499496
64.135803 128.32695 45.351303
152.27097 140.72394 46.150078
42.84837 125.3166 44.024651
136.92105 138.55142 45.065308
75.783936 130.04312 50.936729
63.326683 128.06381 34.820206
76.86425 129.92241 31.729355
175.22116 143.31006 1.1100922
119.39127 135.71057 18.468521
111.28119 134.9557 45.590843
157.33301 141.31802 37.88398
76.269272 129.86453 33.542694
92.768044 132.3333 44.128983
106.61979 134.08049 30.075577
121.75929 136.07666 20.815979
104.71469 134.00308 43.488953
189.37984 145.6499 25.78627
125.0856 136.71892 33.136505
161.39891 141.67685 22.903305
176.01704 143.56377 11.108124
102.59171 133.70345 43.397392
140.96449 138.85269 26.251068
54.848366 127.09785 50.711609
110.78192 134.6313 27.673737
44.141956 125.46262 41.502861
151.97697 140.27509 17.427704
127.93773 137.20114 38.87365
68.624245 128.74969 30.691193
126.14969 137.02292 44.021828
28.607239 123.42696 51.893501
157.03249 141.00594 18.865295
185.72577 144.94815 12.519409
68.686752 128.98833 46.888496
182.16643 144.44775 12.504776
56.268219 127.27214 48.932724
116.90675 135.69472 41.958298
60.678307 127.75779 39.48185
167.21158 142.73885 40.180481
99.957069 133.29443 40.665398
90.167091 132.00883 47.0205
133.72437 138.15286 48.635643
183.52203 144.80479 24.241547
41.581139 125.19746 48.17923
0.099990845 119.41723 51.641006
95.665237 132.51062 27.93187
23.012695 122.59764 48.855453
133.93375 137.98549 34.767136
136.06306 138.04231 17.682434
41.489227 125.05316 38.91922
80.813187 130.44507 29.455582
131.71179 137.46695 20.227417
124.95776 136.76273 37.490334
88.405045 131.45285 25.290115
179.55151 143.91675 0.97953796
132.05797 137.73454 35.658646
124.03189 136.50995 28.843613
135.65622 138.03619 21.280899
178.73672 144.17029 26.917679
140.09471 138.73393 26.496048
178.15921 144.01959 22.016739
135.47905 138.20964 35.259109
137.93631 138.62691 40.329224
93.155304 132.27811 36.40287
176.36951 143.75998 21.445877
153.91998 140.97281 47.357437
68.148735 128.78195 37.673195
168.85168 142.87286 33.381424
44.66571 125.52795 40.921082
153.76788 140.93356 46.098091
165.22258 142.52505 44.812057
116.46005 135.48154 31.358047
147.60999 139.88474 33.168045
147.63809 139.9614 38.293304
143.6156 139.3047 31.850769
176.20985 143.8204 27.285568
141.0757 138.91455 29.50975
185.62991 145.423 46.933128
59.041191 127.65622 48.538269
187.27318 145.52777 38.041267
131.31482 137.54636 29.756943
167.45872 142.53339 23.251511
178.45276 143.91545 11.770142
60.994728 127.79965 39.298141
136.06779 138.11278 22.601456
108.50946 134.50427 41.226204
93.452911 132.34412 38.107368
143.93427 139.06737 11.967804
127.5029 136.92819 23.943146
189.15863 145.36603 7.9689484
126.70529 136.72691 17.657974
66.372299 128.50681 35.875961
50.890236 126.54241 50.767715
178.93546 143.94879 9.3396759
103.31965 133.68976 35.223083
12.244194 121.0692 47.788574
155.7308 140.64226 6.1279144
54.690685 126.92731 40.254944
107.57332 134.33655 38.676308
167.26004 142.83971 46.808792
113.56588 134.97061 24.013245
79.809692 130.35941 33.357254
160.87303 141.57419 20.876602
-10.317307 117.98508 53.881622
153.03159 140.30264 8.9257202
176.07401 143.53804 8.7301788
181.0097 144.13091 1.6306458
186.09659 144.93715 8.0708618
35.831573 124.28958 41.138649
130.246 137.60571 44.524094
168.06708 142.60324 22.150558
148.64172 139.71713 11.137589
69.4562 128.99411 39.675949
163.22668 141.8912 19.90889
175.98792 143.50595 7.3214874
98.774849 133.07208 36.70311
155.71202 141.20819 46.196808
158.43961 141.34827 29.055664
139.62012 138.84274 38.863853
46.470547 125.8582 46.3209
129.90256 137.32816 28.365829
170.81543 142.85646 12.777359
114.53252 135.33224 39.926262
1.7341461 119.62302 49.959076
80.013672 130.46024 38.44178
123.99533 136.39325 20.982025
77.14679 130.13179 43.688652
120.19739 135.90021 23.849548
135.60513 138.0125 20.116516
147.34901 139.53397 11.032364
180.44218 144.03522 0.50770569
138.16736 138.40109 22.127762
176.29521 143.50012 3.8673859
85.901863 131.31348 40.259048
91.685989 132.02873 33.380814
185.51633 145.27864 37.884285
179.75137 143.98991 4.1547699
143.58044 139.25346 28.58638
166.19806 142.1445 8.3309326
125.05255 136.89644 45.974777
154.30511 140.43748 5.8156281
103.35093 133.88057 48.361038
135.11707 138.20831 38.750496
107.69204 134.1124 21.70401
93.556641 132.26434 31.459473
139.68542 138.63251 23.401566
165.47176 142.25339 23.198227
75.935982 129.81885 33.624954
63.666428 128.21579 42.165871
187.09837 145.01141 3.3822327
159.45491 141.46408 27.161774
104.83742 134.03352 44.418159
114.18032 135.16939 31.9366
89.062088 131.79611 42.97377
100.56418 133.33661 37.6241
128.4695 136.97687 17.801071
68.251587 128.84186 40.877167
113.29328 135.15866 39.966705
162.22424 141.75217 20.037781
154.25099 140.78949 31.15834
162.64166 141.74066 15.091644
148.0759 140.04434 39.802528
166.80446 142.39235 19.792328
186.63034 145.06061 11.485611
112.83381 134.96481 30.855988
70.751808 129.16138 38.632835
98.368195 133.11549 43.790604
159.27347 141.42461 26.176941
170.16455 142.64224 4.1258087
89.581238 131.86435 42.640938
176.89233 143.84047 21.940811
187.57336 145.61713 41.366348
153.12447 140.71573 37.118584
170.25827 143.20407 42.793312
181.66101 144.71812 36.564781
162.08653 141.61612 11.813812
156.57729 141.23282 39.363274
61.16864 127.96249 49.052185
178.17099 143.75836 3.4898224
85.32943 131.12766 32.830948
108.35268 134.16861 19.12323
171.48221 143.38959 43.746346
27.266251 123.24965 52.679504
94.252335 132.37399 32.29541
171.16542 143.31506 41.630653
176.29059 143.69308 17.512009
4.7387695 120.05191 50.427773
132.12273 137.76334 37.047218
120.16022 136.07619 36.619614
102.03556 133.64288 44.636642
115.46124 135.25165 25.048859
28.206726 123.34383 50.002716
50.507271 126.32774 39.431641
169.1736 142.92159 33.627655
161.78613 141.87202 32.823639
118.6404 135.86496 36.785088
189.35724 145.57806 20.94635
108.9379 134.25175 19.187134
180.60141 144.5639 36.190094
163.5058 141.82535 12.503036
66.296478 128.54294 39.172829
28.291267 123.33075 48.242828
147.34245 139.9447 40.043915
139.06653 138.81479 42.37738
143.61018 139.36734 36.318871
123.27292 136.67842 48.234642
186.29848 144.81689 -2.4037781
102.04594 133.49751 34.289627
92.617851 132.13928 31.941391
107.94473 134.37845 37.952827
179.54346 144.26691 25.736694
77.550011 130.1729 42.591454
107.6523 134.38327 41.188744
111.78999 134.87735 35.029434
152.14365 140.68869 44.92691
97.391144 133.00351 45.575302
187.92378 145.05423 -1.7740021
134.32277 138.00938 32.598267
137.66016 138.62796 43.139412
144.14178 139.18298 18.06076
131.38985 137.4213 20.199081
162.08481 141.91841 33.1353
190.73203 145.91089 30.786041
53.278175 126.71521 39.295738
105.18129 133.89928 31.55191
127.99693 136.92357 18.725555
3.2159271 119.85646 51.735474
151.82683 140.45029 31.263062
101.66488 133.37181 29.204636
103.2948 133.89095 49.647697
121.86852 136.461 46.820641
61.355583 127.78073 34.391739
183.18123 144.40527 -0.54162598
178.81042 144.22864 30.299561
93.982689 132.29037 29.075089
146.62978 139.5882 21.976776
153.5051 140.49104 17.513107
141.69846 139.11481 37.454178
34.287109 124.1059 43.490013
177.2565 143.69229 7.8908691
99.656082 133.11827 31.23082
142.86618 139.22342 33.543671
76.998924 130.0994 42.868965
76.530502 130.03613 43.048943
154.50833 140.72359 23.965347
147.81927 139.91521 33.243088
120.75767 136.34471 49.626701
164.04305 142.20721 34.093872
75.689819 129.80885 35.358093
30.263519 123.57393 45.848259
182.5585 144.60385 19.622177
128.80013 137.43904 47.098862
51.08754 126.56621 50.490669
142.02007 139.16531 37.829178
158.05087 141.45859 40.679955
181.30859 144.57605 30.042282
52.117699 126.61053 43.411278
135.64395 137.90756 12.337143
132.92715 137.55569 14.446121
100.17732 133.37842 44.402611
90.062744 131.86853 38.166794
38.736832 124.85033 51.88356
117.18055 135.74091 42.501595
96.377159 132.83832 43.976563
120.39823 136.23334 45.337418
180.31171 144.64063 44.466522
135.0748 138.03528 26.974747
131.78497 137.871 47.979271
23.569778 122.6201 44.921692
114.62144 135.30917 37.420166
151.47803 140.48746 37.337151
96.929367 132.76041 33.015503
170.00583 143.00992 31.611053
154.34692 140.61249 17.73436
175.48047 143.44312 7.9200287
180.694 144.67209 42.896774
166.3161 142.3187 19.437698
149.35049 140.25229 41.833069
150.02261 139.94476 13.503677
112.94307 134.94766 28.564407
100.61034 133.23511 30.013596
22.93428 122.51794 44.01593
125.57431 136.84389 37.103371
75.167786 129.7056 33.251251
164.76782 142.30579 33.863373
92.145561 132.06293 31.238708
18.038788 121.85999 46.130379
116.76663 135.53235 31.903015
163.85837 141.97404 19.490021
141.63766 138.77271 13.94696
181.44209 144.69281 36.949547
174.64072 143.78601 40.401443
139.51083 138.69296 29.390823
97.28466 132.67816 23.700089
140.02039 138.60582 18.203491
141.6033 138.88147 21.953705
180.51407 144.04349 0.37805176
163.96648 141.94553 16.409164
181.25269 144.12955 -0.87252808
81.807449 130.67752 35.988655
80.886993 130.55957 36.793037
189.76114 145.28973 -3.3731384
42.074169 125.1797 42.043701
131.33521 137.67012 38.276443
36.574089 124.50317 48.837265
128.06728 137.21582 38.624687
160.30496 141.2821 5.9176788
111.34196 134.99323 47.633507
135.73497 138.09085 24.353302
122.15194 136.25418 29.43782
162.77072 141.65761 7.9616547
168.47998 142.83028 34.062057
139.24396 138.7881 38.739403
141.8344 138.74298 9.9031067
156.92148 141.00157 19.657394
57.971504 127.51869 49.438965
172.47401 143.10135 13.608353
181.85028 144.23152 0.39556885
130.9476 137.45438 26.91156
33.701828 123.99583 41.529335
135.57213 137.91699 13.712708
185.38626 144.80182 5.569809
159.98312 141.4751 22.707077
61.920437 127.93311 39.535576
107.29224 134.35146 42.512054
188.79846 145.42242 15.512054
190.36543 145.84378 29.687363
106.52913 134.03937 28.075775
9.3540497 120.70325 50.621124
110.48101 134.84531 45.735489
79.953613 130.42822 36.78167
169.00784 142.8916 33.156189
145.21718 139.68973 43.123428
146.09644 139.55389 24.842178
168.17223 142.94792 45.400017
151.28946 140.20044 18.976929
38.41185 124.66249 41.863991
189.66049 145.64105 22.38269
102.21153 133.3786 24.269043
124.73935 136.85239 45.970963
138.03745 138.30614 16.72197
138.27956 138.68674 41.146698
169.21558 142.64941 14.031097
173.03352 143.60367 43.46788
74.976326 129.66888 32.560257
90.576851 131.83023 30.376114
162.56131 142.09372 40.770248
166.48035 142.37222 21.5849
87.780693 131.69716 48.6912
71.465179 129.26572 38.921188
102.24892 133.41669 26.582825
155.68747 140.87073 22.657379
139.6564 138.4624 11.701355
129.93146 137.15158 15.635559
158.35062 141.36177 30.888535
158.94244 141.62251 43.403114
189.29752 145.54849 19.452682
94.571274 132.6586 49.195213
146.43707 139.41289 11.530655
183.81265 144.49512 -0.46177673
143.9494 139.56856 47.139267
159.55586 141.37164 19.647186
165.11687 141.95615 5.765976
108.2829 134.40286 36.323524
138.13696 138.32307 16.929489
43.004532 125.40285 48.556038
134.01616 137.74069 16.69754
37.267014 124.52116 43.242424
170.2818 143.15419 39.044495
184.00049 145.04533 36.45472
92.173798 132.21085 41.383133
139.73863 138.95404 45.534775
146.86911 139.97675 46.990677
54.697769 126.95593 42.201683
81.221939 130.79964 50.394066
100.70607 133.38376 39.541534
113.74904 135.11847 32.620102
145.37915 139.25677 11.006088
175.59285 143.34485 -0.11827087
172.13901 142.92188 4.2784271
16.924004 121.78584 51.945869
157.34398 141.34991 40.022476
175.28239 143.41592 7.96492
43.886375 125.48335 45.496155
105.42851 133.79938 22.062668
105.65849 133.86023 24.07338
87.837334 131.67067 46.262955
106.41211 134.30554 47.993019
87.513504 131.50316 37.664383
77.552719 130.24989 47.99073
132.15797 137.80295 39.488716
46.382622 125.92764 52.084534
125.82999 136.99094 44.935257
158.17905 141.18472 20.110519
80.460777 130.58472 42.786308
136.60219 138.23111 25.648849
161.76001 141.92206 36.608536
190.34302 145.99353 40.463783
104.00722 133.6248 23.835281
130.87894 137.34244 19.702637
138.5784 138.71448 40.141808
173.71899 143.60214 36.572609
125.72288 136.56616 16.05835
143.57364 139.09283 17.334
26.341225 123.00415 44.538666
179.24167 144.51865 46.466957
100.72319 133.49892 47.488091
130.59564 137.39859 26.465332
96.110008 132.86374 48.412399
180.61484 144.44171 27.444412
160.72812 141.46426 14.564941
69.069519 128.85117 33.431656
113.09748 135.2149 45.869827
170.30838 142.68973 6.0478058
188.23807 145.4122 20.342102
164.97232 142.40019 38.49099
149.75375 139.92101 14.492188
61.450813 128.0249 50.656143
160.70682 141.78596 37.448723
126.92507 136.71539 14.669724
103.20194 133.67352 35.245361
91.393578 131.91122 27.995132
151.71767 140.35461 25.600861
69.483879 129.00682 40.298492
185.64026 145.36847 42.987427
126.17696 136.63799 16.623505
182.6196 144.96532 44.491302
162.83102 142.22995 47.700714
151.45163 140.31047 25.124313
184.73123 144.7144 5.8953857
93.059258 132.38269 44.725296
87.061638 131.49222 41.369186
58.375229 127.43138 39.287827
143.06062 139.43686 46.66111
119.38135 135.74652 21.100128
67.412979 128.71407 40.17643
119.059 135.78027 26.671082
110.71294 134.73035 35.335526
107.15386 134.04095 22.000137
138.19612 138.25659 11.657745
150.85252 140.19049 22.602982
144.38756 139.64307 48.050934
135.71748 138.09036 24.491119
141.04373 138.8804 27.418533
122.42044 136.19905 22.894501
34.478378 124.18646 47.273384
175.19968 143.91922 44.254448
107.84618 134.12683 21.195633
9.7158279 120.74661 50.095016
81.654076 130.74127 42.000969
181.44147 144.50879 23.985077
73.625648 129.73029 50.264618
115.64287 135.5954 47.475487
134.47507 137.77966 14.90065
21.792908 122.45349 50.778107
120.58598 135.83359 15.30545
158.88113 141.09134 6.5751953
145.40755 139.71985 43.361115
164.08032 141.93179 14.314575
159.89526 141.68523 38.386147
144.0466 139.39737 34.111771
185.66476 145.23801 33.551071
188.35783 145.4888 24.553711
139.1613 138.4837 18.10466
164.60519 141.84146 2.7496338
94.027779 132.30971 29.988968
80.221939 130.49251 38.65316
130.98479 137.57605 35.117538
64.23819 128.17799 33.838974
79.440926 130.28539 31.79158
181.70699 144.64532 30.978088
125.08569 136.65993 28.977478
31.222885 123.71355 46.186172
151.78755 140.28961 20.328094
97.494156 133.0405 47.161911
143.27118 139.18097 26.542145
150.61086 140.31569 33.819839
172.71729 143.06625 8.7256317
176.40453 143.64206 12.788437
127.84013 136.91916 19.966309
121.05448 136.16714 34.173325
163.86382 142.16614 32.974106
51.56488 126.60278 48.340965
99.550606 133.0323 26.216812
178.8779 144.43558 44.215607
129.68694 137.47821 41.075317
152.11601 140.23763 13.411575
117.66132 135.82779 43.863228
67.892136 128.93454 50.969368
72.95343 129.4664 38.325516
162.84789 141.89145 23.678223
129.13686 137.01636 13.97551
91.473114 131.91296 27.330414
170.60005 142.78516 9.8856354
121.43813 136.19312 32.202911
142.89587 139.30899 39.281342
141.10968 138.64835 10.411423
169.33257 142.62135 10.893311
38.440491 124.71822 45.508141
148.35231 140.14526 44.178337
149.59386 140.19652 35.492767
63.894878 128.37115 50.85215
114.5399 135.39046 43.955254
163.68542 142.18973 36.40377
191.03616 146.1651 45.690361
109.88524 134.61502 35.406281
177.72237 143.77011 8.7616577
70.966904 129.23401 41.621841
79.763031 130.49486 43.364845
165.43875 142.457 37.874657
92.067085 132.07715 33.018448
123.13364 136.37372 28.140762
154.5614 140.49692 7.4661102
150.08371 140.40546 45.367592
134.15715 137.96455 31.078964
152.64041 140.64963 37.25293
59.028862 127.58067 43.33532
109.63119 134.71091 44.67942
87.831154 131.4115 28.058487
125.22956 136.89542 44.149803
123.93607 136.40579 22.453171
174.71596 143.72029 35.025604
138.62463 138.29559 10.163544
112.7449 135.08014 39.863594
159.3623 141.31903 17.858505
102.83254 133.81413 48.812408
159.46109 141.63281 38.992531
176.44214 144.02747 39.576866
130.28246 137.26575 20.205627
148.66983 139.80807 17.268539
141.8649 139.02011 29.133041
120.86072 136.27646 43.79641
160.97322 141.52902 16.70079
170.3461 142.97195 25.564392
119.61169 136.00543 37.0644
138.57867 138.62738 34.002182
178.8717 144.33569 37.237625
104.53542 133.69679 23.677124
110.31979 134.79379 43.700989
156.57262 140.85258 12.612915
155.14096 140.82243 24.667068
120.506 136.01392 28.80687
64.32679 128.38126 47.286819
121.74133 136.05917 19.762161
171.49734 142.8354 4.5393219
143.16429 139.12956 23.977142
161.65833 141.49742 7.6895752
164.52005 142.27258 33.977692
180.2836 144.45064 31.355331
87.127396 131.45737 38.261795
126.0396 136.75696 26.368958
2.7998581 119.77454 50.082787
117.44212 135.80783 44.627037
158.45432 141.0114 5.1695557
187.68085 145.52559 33.84996
105.62857 134.01276 35.118912
169.62466 143.01906 36.029327
122.80887 136.50787 40.811531
100.01698 133.02725 21.242371
90.674469 131.93343 36.681366
184.63422 145.25781 45.153534
184.10393 144.77408 16.313599
155.61195 140.67436 9.5673828
111.88367 135.04128 45.654022
96.536156 132.81772 40.948372
131.1002 137.64758 39.015892
60.310501 127.69698 38.83979
132.76244 137.56459 16.703964
173.18396 143.30807 21.146103
155.41229 141.08134 40.227371
189.47546 145.48975 13.550919
184.30023 145.01852 31.596756
43.747894 125.44822 44.391495
135.73964 138.33093 41.225929
141.42479 138.67731 9.3314819
93.992912 132.39484 36.334129
133.03177 137.89482 37.310188
91.59938 132.25186 49.964027
143.55579 139.13602 20.554428
185.92905 144.75961 -2.7813416
177.42944 143.96016 25.056519
133.55367 137.91852 33.810211
165.77356 142.56763 42.355545
106.62862 134.06917 29.189819
169.30733 142.89844 30.671143
181.22641 144.68991 38.880074
184.25952 144.94839 27.057724
126.36517 136.69617 18.858978
113.69348 135.21231 39.783722
20.928345 122.28327 47.343681
59.332771 127.5647 39.199654
181.43163 144.62541 32.302322
157.02371 141.13275 27.890869
106.4632 134.03391 28.34314
170.50583 142.965 23.491776
145.51833 139.634 36.213051
115.38857 135.509 43.906044
71.00985 129.25717 42.827881
85.920555 131.38582 45.171646
109.73023 134.59363 35.433319
95.965645 132.57254 29.320419
164.25684 142.28876 37.72345
185.78 145.38356 42.667198
133.12357 137.71991 24.074051
82.98185 131.02472 48.826721
134.73222 138.19978 41.960983
147.77972 139.77924 24.051865
98.867371 132.8869 22.735748
179.67886 144.18506 18.626938
123.20667 136.50859 36.921783
56.63649 127.34918 50.714645
182.80084 144.42563 4.6607971
48.756241 126.10425 41.023399
181.707 144.24417 2.7063904
183.27399 144.43585 0.69616699
130.28328 137.25504 19.441467
-12.681107 117.26785 26.745117
19.89566 121.76743 21.216415
136.51608 137.89218 2.6158447
47.008579 125.42931 10.765152
-2.6832733 118.60479 21.948807
86.290817 130.90186 7.3960266
60.018063 127.54612 31.103561
119.27 135.39951 -2.252594
-14.477661 116.8892 17.852921
21.600014 122.20602 35.246704
22.754906 122.06464 13.845352
3.8784332 119.87498 46.480156
114.31574 134.90253 11.790039
21.60965 122.06544 25.244934
38.000771 124.34282 23.407028
168.90906 142.37567 -2.2267609
85.767197 131.0186 20.810623
8.4087219 120.50195 45.797768
-1.0087357 118.77501 17.36087
21.011856 121.91084 20.269806
31.220001 123.62762 40.159286
2.2626114 119.60773 43.64801
85.795227 131.06723 23.959335
-13.218102 117.39026 40.690491
52.010727 126.1978 15.383972
137.93362 138.08455 2.1337128
2.0464935 119.51579 39.309311
-10.185272 117.83422 41.942207
72.760475 129.20587 21.875397
28.893242 123.24588 36.299934
30.355499 123.25949 22.77742
137.11182 138.01819 5.596283
76.483833 129.55559 9.6457367
71.106804 128.74449 5.7380676
92.910942 131.89346 11.715927
56.776871 127.12366 33.430496
60.005013 127.50584 28.39386
18.459778 121.35829 6.6035156
-4.9203644 118.48752 35.839531
-14.25856 117.23105 39.774963
52.84869 126.31087 15.053055
109.20631 134.08063 4.4680176
114.3795 134.78716 3.026825
16.652695 121.31235 21.263535
126.84279 136.60812 7.9258881
4.0294342 119.89481 46.380882
111.39684 134.48976 11.608032
69.163467 128.77472 27.113571
127.44266 136.64397 4.5099182
1.4761505 119.06561 13.230499
103.55477 133.36874 10.271271
66.806816 128.19565 9.643631
-12.035332 117.18833 14.745544
93.818741 131.97678 8.5953217
55.795677 126.90483 27.726517
171.99258 142.84476 0.29411316
81.916603 130.17453 -0.54020691
35.905746 123.97839 18.471817
48.643959 125.97322 32.900909
47.381088 125.42053 6.4568787
96.201836 132.45377 18.610092
54.267643 126.5939 20.947632
58.89587 127.31566 25.975616
24.58429 122.64949 36.944786
105.31672 133.48029 0.68232727
141.99974 138.65804 2.278595
27.262596 122.89941 28.032654
78.299751 129.70979 2.529007
13.454132 120.92792 25.847916
125.58282 136.40071 5.7852478
7.413147 120.03986 23.092072
155.81387 140.52376 -3.0474396
3.8262787 119.42728 15.443771
89.536751 131.37328 8.47258
34.806137 123.69261 9.2220306
84.606583 130.77943 15.448959
45.97028 125.2959 11.646317
43.020771 124.99365 19.557251
71.265114 128.89493 14.770874
13.106171 120.68486 12.164795
39.587753 124.65787 29.893356
64.665466 127.98404 15.938629
-0.66091156 118.82059 17.128601
60.197456 127.33772 14.63942
54.876305 126.60378 15.615189
2.689743 119.7038 46.187737
-1.1124802 119.04524 37.433479
12.232056 120.64572 18.063766
154.7216 140.39795 -1.0952911
48.001968 125.41786 0.12019348
69.448669 128.82782 28.032028
71.040215 128.69437 2.8639832
78.265755 129.99742 23.135971
28.016243 123.1683 39.518692
55.301811 126.90664 32.744934
-12.694153 117.00255 8.1772766
6.769516 120.02304 28.280838
28.2621 123.01468 26.257263
15.885277 121.43294 37.361694
18.612549 121.89172 42.684639
49.600624 125.95126 21.878067
82.814964 130.43066 8.6149139
12.836266 120.8163 24.100754
94.984741 132.14151 8.6587982
7.5882111 120.40695 47.229546
0.55233765 119.40511 46.305603
73.882896 129.1145 4.3187714
74.648155 129.53546 26.40741
111.35439 134.32736 0.58332825
3.8660736 119.88051 46.991669
143.75084 138.86734 -0.3119812
35.405083 123.83402 13.257019
1.5968781 118.94905 3.8196716
47.659084 125.46001 6.4859619
27.267838 122.98303 33.873199
31.455124 123.20544 8.0770569
66.096275 128.23813 19.674637
2.2070007 119.65997 47.880081
140.44682 138.46866 4.3128815
60.335808 127.54317 27.748734
-2.6519394 118.89082 41.796768
28.946388 123.09698 25.28009
-6.6504822 117.94067 14.435226
65.216507 127.93755 7.2050476
16.594849 121.02444 1.5450287
82.042313 130.23904 2.7619629
13.767677 120.87207 18.807632
32.19429 123.44836 17.876633
161.41121 141.3344 -1.3527222
-7.5997925 117.93526 23.456146
-11.734039 117.7735 53.001907
40.571754 124.79457 29.781647
12.495377 120.89168 32.790451
37.77478 124.43138 31.886063
3.2258301 119.18837 4.5537872
-7.845459 118.05994 34.675537
24.258621 122.54486 32.797287
104.10511 133.40341 7.2625732
78.212074 130.02188 25.392044
122.98327 135.96594 0.88981628
44.947701 125.10699 8.4606018
0.137146 119.17715 34.353333
52.66906 126.31371 17.03302
33.969879 123.63925 13.744156
-6.9860306 117.83055 9.9984436
25.790634 122.41467 8.4482269
-3.1463394 118.3027 5.2451019
87.127426 131.11452 14.09903
52.260582 126.35352 23.883896
1.7709961 119.54668 44.214561
41.722935 125.01202 33.705063
72.692398 129.25775 26.205887
94.347038 131.93544 0.45068359
52.803658 126.27586 13.032394
76.895241 129.86737 27.544403
35.390038 123.80727 11.52063
10.078995 120.6916 42.62175
-5.707016 118.04727 12.604111
67.337097 128.16306 2.0960236
109.52783 134.25778 13.770233
130.88101 137.20914 10.287003
45.622246 125.18467 7.2543182
-4.8493042 118.32561 23.725784
10.578896 120.20946 3.6913452
35.789032 123.9299 16.211395
141.62349 138.64774 5.2799072
52.274963 126.19351 12.46489
41.84444 124.87918 23.140076
43.79805 125.27238 31.50293
43.211376 124.94109 13.964569
0.6452179 118.92502 11.551926
116.2717 135.17902 11.902939
12.106918 120.81534 31.257813
47.466446 125.72472 27.050278
41.172451 124.84364 27.29071
-2.9921265 118.55478 21.483414
112.50328 134.60452 8.7372131
71.936401 129.09976 22.558563
34.629074 123.7498 15.006653
121.21506 135.81085 7.4745483
44.006248 124.89702 2.9870605
46.22327 125.6261 32.411865
63.29734 128.00732 31.129227
72.761246 128.90472 0.64292908
8.6300583 120.49316 42.986847
48.488571 125.88427 28.1707
18.950638 121.47994 10.31572
106.11018 133.66069 5.5372009
69.544197 128.51952 5.3574677
16.637283 121.49187 34.068344
72.290451 129.12715 20.981888
1.8205643 119.00473 5.5287781
156.29547 140.61926 -1.0858002
76.850327 129.53339 4.4511414
95.58049 132.24094 9.7657166
10.409897 120.34343 14.806015
96.402367 132.44472 15.987183
74.494484 129.40601 18.806305
-5.7667389 117.93748 5.4579468
5.4488983 119.55339 8.2618256
11.436127 120.35815 5.6795654
113.05488 134.58267 1.7339172
97.517326 132.54039 11.68631
2.1940613 119.67564 49.11216
81.579315 130.15683 1.5526276
98.15863 132.65611 13.490738
104.27462 133.53244 14.677902
25.643036 122.85352 40.838081
93.376923 132.00432 14.912674
62.102577 127.48911 6.440094
131.78598 137.20016 0.69204712
101.6495 132.95627 0.070983887
147.48572 139.47812 5.7427521
-9.834404 117.88018 41.706207
32.711266 123.83133 39.745842
108.68742 134.14346 14.035248
-10.402267 117.6571 31.608475
44.987064 125.401 28.791061
32.285233 123.76918 39.58622
31.747726 123.448 22.274155
24.156242 122.29255 16.028732
5.2921982 120.03543 43.785042
98.535431 132.80984 20.593094
60.36298 127.30561 10.736938
99.331001 132.79181 11.442963
3.5283356 119.27071 7.3599243
89.914154 131.63968 23.509674
45.409718 125.28 16.077621
-5.2222748 118.43728 35.28949
0.49269867 119.10542 25.776566
12.730888 121.07179 43.15126
61.030212 127.66251 29.282013
78.849686 129.88828 9.6610413
87.757004 131.01164 0.61253357
16.547676 121.3815 27.176422
-10.702438 117.57555 28.834366
6.4195709 120.1436 40.243378
68.614365 128.6142 21.238647
74.291 129.30524 13.719757
94.68486 132.28662 21.854889
40.610031 124.5912 15.069229
98.117134 132.69057 16.330444
28.999413 122.97214 15.956146
123.71136 136.17064 8.1056061
15.11438 121.15324 25.285858
129.48506 137.04175 12.316483
80.987381 130.04175 -0.69573975
97.430092 132.37772 1.0866699
-1.70327 118.51314 5.7840424
73.856552 129.42831 26.696793
32.708221 123.5817 22.183395
85.544785 130.83658 10.185806
49.435974 125.86678 17.555283
66.529808 128.4431 29.826584
89.465836 131.30569 4.4125061
45.406631 125.37243 22.622711
121.98152 135.9523 9.8499451
25.387741 122.58282 24.289444
124.16905 136.24608 8.8895416
137.92732 138.15677 7.2853699
112.30311 134.49109 2.7254791
-14.003052 116.76285 4.247406
-4.3703461 118.38603 23.240356
-6.4015121 117.79977 2.0402374
131.64685 137.21594 3.1826019
5.5183868 120.04462 42.193932
-10.882309 117.53322 27.631714
57.594986 126.86557 7.1389465
109.30697 134.07611 3.1533203
152.73891 140.11281 -1.5540619
101.07986 133.14935 19.319946
27.79921 123.09416 36.44278
128.13713 136.6412 -2.5632019
92.0457 131.85783 17.773865
7.5025635 119.87311 10.454224
-3.4451904 118.21848 2.2699127
-6.7998734 118.03495 22.560028
68.678474 128.7225 28.238449
36.036629 123.87877 10.155685
56.614929 126.702 5.3180084
11.348167 120.57404 21.766266
2.4972076 119.20245 12.761627
-5.9753418 118.21996 27.431442
93.016304 131.84396 7.1833801
-10.81749 117.53191 26.897308
166.49203 142.04639 -1.4951477
-11.930107 117.21624 15.670303
40.668987 124.43957 3.7993469
104.98503 133.60634 12.850815
64.050186 127.94577 19.335068
62.433411 127.48998 3.2251434
55.469406 126.77467 21.783966
152.77077 140.14301 0.25869751
-7.7447357 118.03178 31.694382
-12.977951 117.56743 50.798248
20.820236 121.72849 9.3153992
28.78334 123.16299 31.547226
18.142578 121.51777 20.984497
109.35587 134.20018 11.41275
15.859741 121.2435 24.264435
10.198479 120.21143 7.598053
130.90012 137.2018 9.5805969
54.796021 126.43321 4.3894196
-1.2007065 118.60973 7.61409
112.52791 134.50392 1.404129
-12.463646 117.19078 19.160675
9.0920029 120.5125 39.773743
19.922226 121.70999 16.906448
21.927414 122.15074 28.108719
14.958145 120.96161 13.32753
64.357635 127.7101 -0.31936646
60.680519 127.38103 12.907501
82.588417 130.57506 21.034317
-13.046494 117.30482 32.969772
108.01637 133.96695 8.2428436
112.52579 134.48894 0.36836243
-0.96003723 118.86953 23.539078
71.153542 128.77016 7.0834045
33.758064 123.90789 34.774521
6.1327209 119.93462 28.355392
155.90001 140.53619 -3.0238037
72.909706 129.0303 8.0244904
93.510872 131.90408 6.5224915
113.0412 134.7771 15.572098
53.920238 126.32597 5.5046997
8.6272812 120.35229 33.086197
15.455147 121.1002 18.172501
42.59341 125.07524 29.539871
24.257813 122.25281 12.221405
161.91135 141.45056 1.8803101
35.082428 124.14773 38.560867
48.617107 125.78314 19.77153
105.68154 133.68124 11.230576
-13.438187 116.87051 6.241333
-0.034217834 119.05847 27.686325
87.721176 131.34464 24.43512
33.20916 123.34938 0.84934998
129.10564 136.8736 4.2227631
40.486931 124.44897 6.2650909
135.99747 137.79633 0.99650574
62.122604 127.56197 11.376572
140.33385 138.42572 2.4055328
-4.056366 118.30507 14.425201
107.28738 133.9436 13.816605
-2.7471771 118.57801 20.693909
11.964905 120.50123 10.52655
0.40678406 119.20326 33.522842
59.405167 127.31377 20.797775
64.686905 128.08131 22.58194
8.8248749 120.43421 36.901848
27.063065 122.53931 4.630127
17.546051 121.1622 1.834137
35.200134 123.95941 24.123596
118.61398 135.39 3.5739746
-3.6216888 118.32863 11.780212
31.397003 123.14147 4.1448975
176.45595 143.42477 -3.0340424
37.901688 124.37338 26.541855
53.542965 126.36071 11.689255
4.9849625 119.60889 16.767487
-10.362991 117.51221 21.007828
74.057564 129.38284 21.501221
60.901756 127.67381 31.350266
59.484863 127.27966 17.60585
38.490417 124.17532 6.7534943
46.946274 125.49509 16.01796
2.0036469 119.50285 38.82061
60.68137 127.65646 32.310593
85.354065 130.82407 11.191757
22.769463 122.28104 28.951248
68.893181 128.66985 22.400024
44.757004 125.14058 12.715714
4.8274918 119.63226 19.974213
86.023712 131.03056 19.112228
112.71912 134.64105 9.1735992
0.33221436 118.85944 10.030273
63.068317 127.86321 23.240799
-3.0312042 118.60103 25.129486
-13.423164 117.23369 31.686478
49.367672 125.64473 2.5830536
13.373055 121.19949 45.790955
105.0766 133.62085 12.965698
127.23695 136.7028 10.693207
25.251358 122.45097 16.347641
5.0989456 119.68334 20.885666
38.54184 124.36143 19.360001
15.327065 121.03275 14.68718
137.64801 138.04813 2.3947449
107.51156 133.995 15.21759
104.42303 133.39287 3.3715057
63.79052 127.93584 21.207428
104.62762 133.51956 10.274261
40.473419 124.40646 3.403595
135.05612 137.63216 -1.2495728
121.32239 135.89236 12.153564
87.667313 131.05035 4.2295837
5.4555664 119.74759 21.88176
40.265533 124.53055 14.208069
61.868141 127.58505 15.524734
70.441803 128.81979 17.629913
46.562889 125.54701 23.474457
111.17979 134.35907 4.5466156
17.054993 121.54778 33.871231
13.216003 121.06976 38.203857
157.56805 140.86694 3.7666473
-7.0896912 118.25282 40.783791
56.90786 127.02345 25.071899
5.8949585 119.75055 17.738876
48.143654 125.70535 18.97731
46.588264 125.63474 29.40593
144.19321 138.9583 1.7172241
108.18107 133.96683 6.6034546
-12.806549 117.35794 34.336456
98.236618 132.73688 18.409927
57.371246 126.92543 13.574432
24.861938 122.48223 22.40683
7.2761841 120.06284 26.067368
-8.1636963 117.85735 23.550156
-7.5963898 118.0192 29.338089
129.11794 136.86136 3.237442
-0.43276215 119.11978 35.954132
-12.982697 117.03806 13.538147
63.828667 127.8695 16.153168
166.74213 142.10962 0.48448181
69.752991 128.75061 19.576813
2.3553238 119.27571 19.330002
78.687408 129.77145 3.0341949
2.7199097 119.15387 7.1325684
125.59081 136.48615 11.727966
118.68983 135.54762 13.931381
66.114677 127.99977 2.6937714
6.5140228 119.85481 18.955185
71.087875 129.07407 29.151825
72.047997 129.02086 15.892532
78.188988 129.77693 8.3580933
-8.5859833 117.74924 20.11467
4.324646 119.92783 45.784485
90.507759 131.3996 0.71081543
70.648438 128.92328 22.876373
-7.5145721 118.23474 43.718071
155.36658 140.5488 3.1483612
-1.2450027 118.77292 19.553604
107.22962 133.88846 10.502365
93.65065 132.15311 22.689056
6.7621002 119.79649 12.388565
2.2517853 119.01884 2.2530212
72.377411 129.23645 27.824539
4.1162949 119.49735 17.509949
-8.5427856 117.67973 14.787415
1.8731384 119.5991 46.896667
89.958778 131.44189 9.1288757
41.328854 124.65213 12.244659
69.823364 128.79269 21.845413
7.5694275 120.18463 31.746933
64.268234 127.93604 16.489716
7.2973022 119.89433 13.983353
-9.8869019 117.33524 3.8205719
27.118179 122.67578 13.70256
-8.0305634 117.97114 30.2509
42.61404 124.69514 2.5474701
35.93187 124.21906 35.175629
99.385155 132.93359 20.899109
19.634247 121.86421 30.62674
118.70061 135.55177 14.117279
-13.149323 117.58192 53.516586
110.61362 134.43391 15.428787
23.99321 122.5849 38.246979
24.090225 122.63881 41.085632
-13.675262 117.21404 32.79866
23.9814 122.49406 31.961288
114.20544 134.88469 11.624557
37.929733 124.48022 33.793152
131.80515 137.3504 11.09053
4.0341415 119.60315 25.779434
-11.93589 117.67753 48.236732
55.467094 126.55154 6.0824738
29.929382 123.0499 12.226257
37.291428 123.93752 1.8689117
86.650078 130.91347 4.6572723
8.4950409 120.24138 26.578339
45.239052 125.3315 21.397766
6.3674011 119.74933 12.974014
44.185413 125.03487 10.927292
85.298401 130.73193 5.2496796
81.693573 130.50002 24.608521
110.61845 134.43495 15.453857
12.431831 120.70775 20.457047
163.65193 141.70593 2.640213
65.173943 128.05061 15.594009
14.518326 120.74901 2.700119
123.2452 136.03482 3.1506195
47.635155 125.45161 6.1316223
94.472031 132.20938 18.5186
30.500824 123.23953 19.931015
67.817276 128.24655 3.2237549
141.6058 138.5675 -0.19932556
-10.678413 117.91862 52.774323
57.962955 126.81977 0.26689148
70.509933 128.58243 0.22569275
138.10612 138.10535 1.8908691
107.75594 133.99525 12.817276
180.58479 144.0195 -2.0122833
8.0824051 120.03099 15.83812
50.642212 125.95824 12.054733
9.2060547 120.11153 10.385483
180.58043 144.00055 -3.3058929
119.41711 135.49796 3.2279663
133.27332 137.55386 10.888824
37.193893 124.00913 7.8814087
9.193512 120.51736 39.110527
76.119171 129.49054 8.6730042
81.12365 130.42751 25.142517
76.999191 129.84045 24.618683
1.5876923 119.15688 18.55809
70.250076 128.60321 4.2653656
21.48233 121.75727 4.7873077
78.040131 129.7471 7.7280121
46.674973 125.41066 12.75531
12.109055 120.73541 25.603302
110.6538 134.43652 15.21434
156.75986 140.67502 -1.7564545
143.85036 138.98712 7.1437531
-0.53144836 118.67548 5.6195068
68.068184 128.47745 17.012253
129.77518 137.01999 7.9087372
11.774536 120.4644 9.8171082
8.9539642 120.56265 44.675095
87.324417 131.13513 13.599548
-9.8512878 117.34633 4.2499542
62.057209 127.66879 19.553253
18.285522 121.74376 35.495758
54.043427 126.48383 15.410522
4.9061279 119.59344 16.459656
12.407684 121.06529 45.894394
45.120708 125.23869 16.028275
18.57312 121.50706 15.96637
43.747269 125.00874 13.425186
-0.60344696 119.27155 48.34095
130.29578 137.05359 5.1210327
29.016251 123.17637 30.183273
-14.648132 116.92276 21.906509
64.809906 127.89761 8.4166412
62.770164 127.71291 15.601089
6.7671661 119.71808 6.8118439
145.62489 139.24117 7.4727783
26.312325 122.96249 41.890007
52.035446 126.35242 26.036545
18.464951 121.64481 26.745178
-8.208847 118.14874 44.533409
155.19344 140.53389 3.8120728
6.2708435 119.62029 4.8360443
1.4267731 119.1918 22.613022
15.993172 121.4285 35.979874
113.67601 134.79309 10.411987
84.238968 130.51204 0.24578857
77.25042 129.76295 16.667953
31.211601 123.27458 15.362442
42.137978 124.79605 14.373749
-2.2793121 118.79597 31.421707
7.1462097 120.14302 33.005768
23.843338 122.11884 6.8849487
2.2628326 119.43254 31.299484
102.81166 133.38246 18.597626
81.623489 130.14038 -0.043579102
174.63498 143.1604 -3.6311646
86.569153 130.85413 1.2768555
154.06235 140.30515 -1.1053925
164.02402 141.75246 2.2338562
67.722534 128.53412 24.427887
10.368729 120.54032 29.090042
49.945793 125.91386 15.824005
107.62983 133.78629 -0.66162109
30.532867 123.40955 31.595276
91.131378 131.77243 20.810394
82.457916 130.44194 12.944748
14.18882 121.26723 42.485184
155.51706 140.54935 1.6968994
33.523445 123.7617 26.795898
74.409805 129.23132 7.3343506
44.616985 125.33604 27.878601
-4.630249 118.7194 49.308823
36.540985 124.02663 15.581345
120.93988 135.83279 11.745178
36.074738 124.08872 24.574768
-6.2017059 118.33398 37.710838
22.156113 122.07471 20.48558
135.87616 137.75909 -0.42572021
22.903397 121.92474 2.5149231
47.30582 125.75708 30.920227
-4.9637299 118.13809 11.643829
32.844002 123.63971 24.927475
-8.110733 117.91814 27.310699
-12.56218 117.35858 31.961823
88.004028 131.29099 17.853287
90.617813 131.71436 21.80423
-4.8557281 118.4644 33.570892
40.869965 124.53159 8.2937164
71.360733 128.88255 12.952042
65.323586 127.88177 2.2133331
100.23975 132.82123 4.5161438
36.430389 123.84217 3.6764069
18.311813 121.84204 42.161438
72.871895 129.03156 8.4868469
115.65485 135.10971 13.129166
139.27554 138.24915 0.44369507
140.07909 138.37079 1.0582733
47.536987 125.40102 3.5374603
-3.6828003 118.72386 40.239761
6.2568283 119.63535 6.0359192
49.741169 126.11707 32.172546
119.83229 135.71715 14.56366
12.819641 121.05447 41.051369
99.797997 132.83838 10.099976
45.923485 125.49845 26.38385
-5.9938202 117.91706 6.2684326
0.37877655 119.05592 23.415802
137.26768 138.04666 6.0587769
83.72963 130.75623 22.499664
-8.0382919 118.0598 36.57579
7.1266022 119.73392 4.3683014
56.318321 126.66637 5.7449951
32.765579 123.34796 5.1437836
55.951611 126.83266 21.096634
40.123627 124.79628 34.340042
116.14282 135.13083 9.7830505
63.872932 128.01157 25.726959
65.255356 128.27298 30.460129
-8.649559 117.89732 31.17926
113.30188 134.76883 12.408203
55.009945 126.77293 26.212723
120.64346 135.67502 3.5601349
123.87622 136.15768 5.5599823
20.46067 121.98372 30.864334
85.482422 130.95154 18.904755
98.323555 132.50148 0.95910645
20.763092 121.86014 19.15979
-7.354393 118.24229 42.664207
29.347397 123.02806 16.451523
46.165466 125.52365 25.764114
29.212051 123.13779 25.525467
58.557121 127.31206 29.07637
112.74924 134.63048 8.1319275
19.521927 121.51553 7.1659088
-6.3085327 118.08693 21.356827
132.55844 137.36227 4.4662628
102.01886 133.03706 2.10672
54.383575 126.48157 11.881607
82.833702 130.68129 26.091248
15.897446 121.48705 41.054932
57.056339 126.83759 10.501892
150.61026 139.86899 2.3443604
117.26319 135.13837 -0.78257751
-15.300293 116.85292 23.442841
58.627853 127.05756 10.439987
72.960487 129.15894 16.586456
37.693039 124.23734 19.021149
50.373161 126.16345 29.181488
-14.072372 117.19518 35.402466
42.595562 125.05807 28.308563
42.980942 124.86961 11.209656
19.787704 122.03012 40.799652
82.527184 130.48216 15.093918
17.947205 121.3383 10.271713
28.012108 122.68604 5.571167
1.3825912 119.17665 21.982376
11.916565 120.47493 9.1520233
32.837769 123.38268 6.8748779
114.97198 134.90714 5.615036
97.564499 132.59753 15.247284
134.76825 137.68375 5.2357483
4.4472046 119.34945 3.8092346
30.840584 123.08012 5.3318634
56.840561 126.89463 16.659592
112.37051 134.54068 5.5530396
156.54266 140.71945 3.5258179
43.555336 125.22299 30.425629
66.277504 128.05676 5.0981445
21.902435 121.81992 5.0415192
53.685776 126.30476 6.3320313
68.972122 128.70499 24.094193
62.441986 127.71272 18.838486
106.49765 133.88965 17.835297
47.455883 125.39521 3.9317932
74.085464 129.24594 11.57692
27.310211 122.83054 22.70723
141.76813 138.60033 0.50617981
38.224396 124.37732 23.623657
19.549973 121.95958 38.183121
-0.52212524 118.77611 12.619019
47.791016 125.71512 23.158676
-11.887222 117.74556 52.54921
19.644981 121.97276 38.170639
-8.8073349 117.80582 26.292831
6.4836731 120.09016 35.841995
66.637825 128.30852 19.272125
82.354645 130.58823 24.276703
45.201038 125.42697 28.502396
63.763992 127.64409 0.90849304
55.555244 126.84768 26.079803
31.496048 123.37602 19.693802
93.517998 132.09708 20.053085
62.330841 127.56164 9.2913208
99.222565 132.90222 20.297852
45.521004 125.16236 6.6844482
12.703568 120.8304 26.409348
40.496597 124.52037 11.200867
-14.34198 117.31526 46.535988
81.664398 130.43018 19.974228
36.277344 123.84957 5.713562
58.202072 127.09335 17.179901
36.808563 123.96106 8.3098602
-7.5597687 117.92615 22.418335
4.2633896 119.64941 26.770584
4.0829849 119.89982 46.204124
145.20334 139.08948 0.95715332
145.30051 139.19658 7.5435028
61.576904 127.77734 31.959961
137.30634 138.10489 9.7795105
87.297691 131.03973 7.1416931
57.021885 126.8927 14.727249
65.17704 128.03024 14.127914
89.90406 131.49164 13.176559
53.087135 126.52592 27.848099
48.816097 125.61716 6.1020966
-0.4524231 118.77631 11.94281
91.872833 131.84872 18.844666
32.181885 123.77037 40.693115
21.891068 122.34898 42.440132
122.25121 135.87964 2.0596466
29.630028 123.156 22.668533
16.760651 121.37904 24.894638
8.8919983 120.56056 45.142502
9.8581696 120.27887 15.720154
-9.335762 117.39809 2.79216
80.385689 130.17514 14.665543
22.413406 122.19809 26.632599
43.832466 125.27217 31.147003
43.846817 124.96243 9.1752777
54.125553 126.47604 14.04718
14.987 121.23708 32.455597
65.561981 128.24049 25.133286
19.040535 121.66739 22.634995
20.553787 121.58891 2.1176605
165.35912 141.92923 1.4685211
53.707809 126.55344 23.640137
10.618965 120.27348 7.8059845
28.734009 123.21987 36.044205
-1.3481598 119.18977 49.95253
7.5216675 120.14536 29.451843
-4.2267838 118.72371 45.616783
-15.546928 116.5313 3.2187042
98.808128 132.75143 13.775375
135.88489 137.90656 9.8794403
-10.82859 117.70304 39.068352
27.245018 122.76988 19.078079
37.186127 124.24056 24.268448
43.143394 125.1569 29.847321
5.3106384 119.82748 28.946732
-11.238892 117.23653 10.25386
65.054848 128.22816 29.287186
69.718643 128.66946 14.198441
16.919235 121.08887 2.8741455
129.55617 136.90253 1.7984467
0.85987854 119.32405 37.548088
11.379517 120.45396 12.992645
33.121063 123.42357 6.9509735
17.046585 121.29156 15.897339
2.5249481 119.07259 3.335556
70.996887 128.68933 2.9380493
62.426407 127.63867 13.77417
75.988159 129.35826 0.64750671
16.218704 121.23926 20.410385
43.428696 124.96712 13.647095
6.8147278 120.01869 27.525909
-0.72221375 118.64859 5.6132965
73.452065 129.3183 22.94902
14.467537 121.28831 41.210876
-14.212708 116.92328 17.630112
6.3571167 119.92108 25.179733
14.222458 120.91644 17.429779
29.040245 122.89339 10.00209
62.528084 127.71712 18.295303
98.630402 132.56096 2.1117554
48.766712 125.88531 25.489731
74.501472 129.43509 20.787155
24.836243 122.51599 25.040939
59.830406 127.1376 4.1715698
42.40184 125.15576 37.111992
125.07555 136.37846 9.2419739
50.330124 125.82284 5.6029205
26.568092 122.86534 32.510376
89.993774 131.38377 4.6861267
143.30702 138.825 1.0988312
76.577171 129.4872 3.9015656
53.517952 126.52897 23.795914
115.89456 134.97964 1.5869293
104.4362 133.45503 7.6230927
-10.43219 117.94634 52.289154
113.9429 134.67163 -0.79006958
32.38858 123.63911 29.395462
20.80323 121.61186 1.2646332
-13.020386 117.09665 18.039917
145.37369 139.07687 -1.6186066
23.893509 122.48451 32.158905
85.810135 130.87799 10.47496
26.019211 122.77129 31.316788
92.829979 131.75009 2.4130554
98.407578 132.71935 15.481323
19.520218 121.44134 1.9537048
35.139328 123.72112 7.9323273
87.580582 131.04141 4.4586182
-0.48207855 118.90367 21.212738
15.155457 121.2545 32.015228
-11.1754 117.53046 30.340698
4.1055527 119.53349 20.162949
79.003807 130.03529 18.495285
43.319504 124.82682 4.8409119
89.580788 131.47208 14.998215
19.631393 121.5809 10.689041
25.94146 122.82835 36.109482
59.065807 127.41584 31.352661
9.1395416 120.39966 31.351425
-4.5437469 118.70715 47.588623
37.264923 124.24136 23.544205
16.14209 121.1521 15.026749
41.61483 124.58779 4.878067
59.36813 127.35076 23.772263
3.8286133 119.44047 16.350311
99.611488 132.91122 17.07959
131.929 137.21704 0.46392822
38.286209 124.1646 8.0201263
-6.4670334 117.9706 14.728836
36.173096 123.80656 3.7154999
2.6383057 119.58161 38.085983
83.319656 130.60159 15.66156
144.7614 139.0253 0.81044006
37.805748 124.13893 10.968903
23.889999 122.3321 21.452927
3.0550079 119.43443 23.586716
23.440063 122.40567 31.093826
80.330582 130.18301 15.765701
66.538284 128.06519 3.1085815
7.2470093 120.03314 24.263641
64.162292 127.84764 11.309525
156.32751 140.69984 4.2758026
-0.33625031 119.27538 45.963684
14.2034 120.84218 12.38501
19.612839 121.85512 30.198456
30.390411 123.19844 18.128983
-5.2223511 118.41252 33.545029
35.064468 123.79929 14.183014
135.11336 137.81067 10.762878
47.511757 125.82921 33.964203
75.647697 129.60994 21.756897
43.068176 124.93847 15.198318
106.73296 133.9117 17.058517
142.21243 138.66675 0.78788757
17.985001 121.81946 43.80619
25.854782 122.66634 25.549591
54.780342 126.68977 22.625412
76.631668 129.48167 2.9725189
21.848618 122.25798 36.447083
32.152954 123.21416 1.7798767
71.972763 129.00803 15.733307
12.620956 120.78809 24.246109
106.62045 133.80397 10.581421
13.438187 120.70928 10.597687
-3.8939209 118.25146 9.0380249
34.891937 123.7952 15.603485
77.463036 129.90723 24.729935
36.28756 124.18977 29.587662
-7.26091 118.30109 45.881981
65.30687 127.85088 0.20236206
110.80631 134.39738 10.945007
-8.0871429 117.85104 22.347443
21.197372 122.05931 28.895584
52.609734 126.42736 25.629944
22.773087 122.09966 16.133682
46.365341 125.65184 32.818695
49.875496 125.82533 10.280579
167.6353 142.18719 -2.8938904
100.38733 132.88715 7.7005157
-4.3176422 118.38456 22.614731
10.419266 120.72285 41.453873
112.46527 134.72424 17.550903
15.224144 121.04581 16.627121
87.508736 131.23132 18.554092
2.6525726 119.07327 2.1195526
74.636917 129.20276 3.0717773
52.549717 126.18378 9.0580444
-8.6893387 117.92194 33.308136
47.86821 125.90034 35.448105
29.543777 123.36163 38.01506
122.23286 135.90155 3.7852631
30.759644 123.09213 6.9796753
73.38092 129.05908 5.3843536
13.008339 120.65958 11.352051
3.725296 119.42174 16.053055
66.200851 128.40778 30.594421
56.923027 126.80109 9.2505341
71.35878 128.7803 5.765564
89.894051 131.60489 21.25824
64.433563 127.76302 2.657608
149.14441 139.6265 -0.2285614
46.410217 125.46918 19.501633
-11.837433 117.19225 13.061707
59.842606 127.35661 19.485596
-7.7712402 117.8798 21.245773
123.56379 136.20114 11.718719
126.95097 136.49788 -0.91650391
3.7129211 119.33743 10.234222
22.444214 121.96379 9.8149261
106.52071 133.74368 7.3195801
2.084259 119.14853 13.051376
1.9015579 119.51895 40.966919
126.39751 136.43854 0.38417053
49.291775 126.06712 33.103043
0.14006805 119.12285 30.496597
11.976227 120.73256 26.717346
7.7182693 119.88786 9.3577118
93.294708 131.89247 7.8443909
-2.9905319 118.65081 28.234818
124.83499 136.19772 -1.1141968
117.12614 135.23676 7.5093842
101.28618 132.95177 3.3525391
-9.2956467 117.96141 42.09481
-6.0014343 118.31371 34.297318
-5.1978607 118.56924 44.34864
69.05571 128.40158 1.8842773
125.5492 136.4938 12.678879
-13.956573 117.15644 31.526215
0.25245667 118.79906 6.5647583
99.196907 132.7944 12.953247
7.3123169 120.16562 32.953873
8.5785294 120.15077 19.365952
111.21701 134.39296 6.5666656
-14.039299 116.75017 3.7127228
67.096443 128.37387 19.335251
110.61676 134.41058 13.753952
12.472069 120.55305 9.1557159
117.18489 135.31749 12.617706
32.341209 123.2868 5.0357361
69.020493 128.69693 23.048203
113.68242 134.78253 9.6050415
69.189896 128.55859 11.621262
112.12225 134.63669 14.778214
61.952549 127.50359 8.9463959
