ply
format ascii 1.0
comment PCL generated
element vertex 1589
property float x
property float y
property float z
element camera 0
property float view_px
property float view_py
property float view_pz
property float x_axisx
property float x_axisy
property float x_axisz
property float y_axisx
property float y_axisy
property float y_axisz
property float z_axisx
property float z_axisy
property float z_axisz
property float focal
property float scalex
property float scaley
property float centerx
property float centery
property int viewportx
property int viewporty
property float k1
property float k2
end_header
60.696487 40.53154 176.25938
61.449883 65.085297 107.21521
60.528389 65.294296 105.77338
60.410019 65.318619 106.06886
23.904976 39.328144 68.181671
23.803078 39.23592 69.445114
61.122108 65.155579 104.52692
61.541916 65.058136 104.67659
60.194824 65.325043 102.07979
60.391987 65.318832 105.01294
24.164558 40.155334 69.155609
59.770565 65.42395 103.76053
59.505775 65.477219 104.1084
60.030212 65.381866 104.30919
59.686146 65.435806 102.86639
59.955585 65.398926 104.67665
59.474525 65.483475 104.28157
59.188705 65.55957 106.55298
59.948643 40.37188 173.82147
23.450409 38.505199 71.414383
58.90966 65.571152 103.58867
57.511467 65.785461 103.17714
56.996498 65.859955 103.91156
56.338394 65.944046 103.91415
56.799896 65.881287 104.33835
54.227737 35.82037 126.86991
53.734299 35.826622 127.86604
72.41349 60.921391 261.16742
72.501862 60.844204 261.00092
52.571854 35.43964 125.42928
52.839272 35.52771 125.97865
21.58609 41.675423 121.90781
70.558014 62.400768 257.07315
20.966782 41.977295 132.96318
20.876244 41.353451 131.11099
79.086365 58.175213 65.20163
26.245026 25.091253 37.2957
78.867256 58.306347 64.641602
121.56003 11.800333 51.938492
93.765259 42.149178 258.72421
24.428314 52.323544 149.80716
72.481453 60.909168 264.22296
23.307144 38.526646 73.87706
23.13121 38.074589 74.408585
24.319778 34.275723 32.394989
24.63588 35.593586 33.40094
70.582413 62.30872 252.00444
58.477875 40.385918 173.57918
59.194466 40.377956 173.80867
27.50531 42.549442 36.358292
59.786373 40.568249 176.08173
22.948051 36.872265 72.174011
60.04797 40.622337 176.79396
58.695152 40.570431 175.7681
70.674637 62.255955 254.99187
90.985138 29.920628 142.63486
75.472 58.09705 195.35614
12.935051 90.705658 373.79636
70.950562 62.047527 255.51024
0.65477753 82.914734 373.28851
71.927856 61.371483 263.00275
58.578304 40.59621 176.06165
58.861839 40.628708 176.51328
77.247971 28.020714 24.208694
57.995209 40.487164 174.96864
61.695957 39.782722 167.15356
61.422752 39.761795 166.78426
69.75795 63.002758 254.84532
70.22699 62.61311 254.42336
70.337341 62.521976 253.97469
70.139404 62.686131 254.33347
69.717255 63.048534 255.91093
27.063675 41.803173 37.410522
26.818375 24.717686 39.492798
26.238846 25.183483 40.022614
61.416443 39.798031 167.20769
61.418129 39.81955 167.45616
75.427177 58.140343 194.72266
75.018051 58.454315 194.65662
100.84467 38.399082 136.41724
78.391693 55.763805 250.92963
89.008575 24.023911 -3.0527649
58.077873 40.618778 176.37029
58.47562 40.604431 176.14626
37.62043 32.069977 5.7514801
24.097229 40.478458 72.256958
89.253693 25.800423 -4.5861511
60.408073 39.811211 166.91531
89.633148 25.591782 -4.2587585
88.767357 25.257793 -4.5598755
87.964798 24.824776 -4.5880127
77.935791 56.168507 246.24727
13.833473 89.279175 374.01385
13.742256 88.577057 374.03351
24.157784 40.792423 73.406036
57.150314 40.563213 175.94093
89.371109 27.586346 -4.9611511
23.928345 39.96286 71.609543
23.812218 39.61478 71.623047
88.088188 28.191051 -5.0984497
86.546928 26.743023 -5.0480957
24.571342 35.206959 32.662415
23.772949 40.022671 74.765961
94.425369 32.570206 -3.9367676
58.740681 40.279739 172.25294
77.499954 56.545181 246.27086
93.893913 30.795555 -3.8877869
95.477737 33.799942 -3.8897705
77.568512 56.472244 247.68497
94.591049 33.281567 -4.0482178
57.574173 40.177555 171.37442
94.695938 33.016781 -3.9459839
94.787918 33.251186 -3.9562683
95.43335 33.146236 -3.8092346
26.663994 42.048958 12.067383
94.671066 34.639046 -4.597168
92.604492 31.952564 -5.0552063
91.390564 31.222431 -5.2494202
90.75351 31.437721 -5.3468323
93.001556 33.972286 -5.44104
90.567886 31.755161 -5.4073486
78.335953 55.80249 249.94835
78.483589 55.673611 249.85742
89.93615 31.607391 -5.4244385
29.121147 45.036533 -7.2810059
89.462601 29.196114 -5.1292725
23.229744 37.556507 69.631729
23.165367 37.370167 69.990295
93.671432 35.486725 -5.4364624
93.694138 34.887211 -5.37854
57.161278 40.299023 172.97162
57.498146 40.241226 172.10587
91.763031 35.228153 -5.7217712
77.254028 56.73645 249.62543
75.47509 58.124844 193.28018
90.027481 34.147846 -5.6904907
63.363735 40.557873 179.00043
71.888718 63.09116 364.40021
89.827042 33.519794 -5.6408081
89.055763 33.559078 -5.6747437
89.160957 33.87923 -5.7035828
90.148956 35.093109 -5.7633667
74.923462 58.535164 194.03133
88.175613 34.730751 -5.8462219
92.98011 37.158978 -5.8214417
91.92601 37.047672 -5.8807373
63.240639 40.361187 176.17523
63.220322 40.423622 176.87512
26.559456 41.888348 13.551559
26.208527 43.854015 62.335785
26.096687 43.612591 62.235443
25.971664 43.396229 62.477386
26.122063 43.734467 62.717117
90.095337 23.477631 -1.1005707
89.378624 23.622208 -1.3957977
68.707321 63.782848 252.63695
63.043182 40.429874 176.72958
55.258629 40.000782 170.87347
27.223007 45.614063 60.502731
27.360718 45.840305 60.360184
85.470802 24.255768 1.0387421
62.39555 40.381535 175.56378
94.953018 22.619713 0.97355652
56.838562 40.38805 174.16437
84.022385 24.494652 2.8057098
83.998947 24.486923 1.7350006
83.425934 24.587452 2.881897
95.216301 40.997269 -4.9208374
94.737885 41.26416 -5.4506226
26.685959 44.956532 63.530869
27.557709 46.522808 63.130386
94.930862 42.312069 -5.2825317
95.018143 42.216366 -5.1395874
93.545174 40.946815 -6.1842346
27.177261 45.676533 61.979202
55.591591 40.340771 174.18625
56.010803 40.297962 173.5327
78.246567 58.662872 63.909348
55.37957 40.133564 172.16277
27.163788 45.917301 64.137756
91.846382 40.953934 -6.2613831
26.929344 45.328766 62.920074
94.151016 44.808842 -6.4272766
27.051033 45.40694 61.644394
92.865166 43.8983 -6.5512695
94.970413 46.128345 -5.437439
94.171936 45.389435 -6.3934021
94.295319 45.800724 -6.3609009
93.91893 45.376411 -6.5930786
93.303192 45.164101 -6.6194763
92.622185 45.353222 -6.6989441
68.179871 64.193481 252.46121
91.449684 43.07127 -6.5090637
120.45805 12.538746 37.42778
24.833466 97.343307 364.57135
90.612297 44.733494 -6.7234192
90.988899 45.195992 -6.7628174
44.401894 31.144535 8.8844147
90.064339 45.42083 -6.841217
89.434151 45.740074 -6.9165039
61.693161 45.227657 -8.4749146
62.470749 46.43594 -8.6225586
61.406914 45.808708 -8.5973206
60.604393 44.505894 -8.3461914
54.291344 40.086365 172.71841
59.499748 44.348629 -8.4168701
59.445232 44.097397 -8.3919373
25.531166 43.064667 67.339264
58.42067 43.477123 -8.4826355
59.280338 45.400547 -8.643219
58.182167 44.517731 -8.6360474
61.462616 48.286491 -8.8701477
95.151855 40.889088 267.84772
59.951839 47.119663 -8.8256226
59.807507 47.602673 -8.9038391
59.494102 46.124466 -8.7420044
94.738434 41.241886 267.25885
68.716225 63.853489 256.05283
68.71685 63.830944 254.91537
106.43295 31.804028 206.75183
26.811676 43.076015 12.913208
57.039093 46.883801 -9.0077209
26.519524 44.936813 65.924973
26.568558 44.990971 65.470078
27.437729 46.679497 66.437622
69.076843 62.336025 160.73279
56.617363 42.700829 -8.5725708
55.184029 42.932945 -8.6809692
55.714691 42.453835 -8.5961304
56.440079 44.322159 -8.749939
62.052773 40.499714 176.66522
56.719856 45.343605 -8.8355408
56.621681 45.751167 -8.8866882
56.312843 45.306919 -8.8551025
56.311577 46.134495 -8.9553833
68.474556 62.689304 161.44592
59.881325 49.591724 -9.1095276
59.998985 49.617458 -9.1031189
94.276207 41.645569 266.93295
26.587761 42.16811 14.074097
58.038349 49.295589 -9.1781311
56.736969 48.606068 -9.1896362
58.925449 50.257843 -9.2259521
58.975494 50.768162 -9.2783508
59.778503 52.191223 -9.4348145
60.238831 52.136375 -9.3963623
57.681965 51.470882 -9.4189453
56.11755 49.888767 -9.3591614
58.243881 50.886189 -9.3263245
55.768742 49.901779 -9.3842773
52.02224 43.018196 -8.8822327
55.554565 46.628063 -9.0747681
75.419685 58.313248 247.68596
67.259483 63.370457 159.84326
30.264526 65.411179 190.06093
60.094471 55.187229 -9.7281494
59.545456 54.556892 -9.6460876
62.36924 40.609974 178.30774
62.607533 40.642147 178.98779
15.067757 85.025543 374.21732
61.715591 40.797321 179.95255
26.952263 46.062584 68.804886
26.8573 45.856785 68.545761
26.65377 45.50359 68.756638
57.414345 58.633694 -10.270447
51.903564 29.916676 15.407547
51.43074 29.986485 15.141724
51.292015 30.03273 13.573715
51.945694 29.923298 14.037689
50.410202 30.16972 12.253128
51.327927 30.013798 12.449722
51.307129 30.023716 -0.91946411
26.329834 44.626095 66.484848
68.624008 65.828812 363.87424
68.558395 65.900238 364.42935
51.933121 29.913555 13.165802
50.829033 30.084476 10.94397
26.271133 44.618221 67.598633
51.349663 29.999706 11.471954
26.03112 44.220577 68.378159
25.90799 43.92474 68.034058
54.262405 34.71368 -7.8908997
77.346573 56.681396 252.51926
77.964233 56.144325 252.59415
26.720337 45.404568 66.93335
54.474854 36.720253 -8.0545349
54.472557 37.461597 -8.132019
55.275681 28.727037 24.804535
55.86734 28.844633 24.579422
54.947041 28.662794 25.71727
54.505402 28.564829 25.316803
53.058487 28.407835 24.018906
67.354187 63.318783 159.20609
26.254387 44.168926 64.124756
61.294655 40.701481 178.44473
52.213188 28.042761 25.455429
52.247894 28.042612 24.799286
67.685287 64.601379 253.7392
67.833115 64.480148 253.18326
52.47522 29.198483 22.606903
52.168808 28.261375 23.862701
68.034073 64.349625 254.69521
50.304764 27.890266 23.653229
50.969574 28.078194 23.663361
94.512177 41.465263 265.1676
78.204727 55.90414 256.22549
51.923645 28.131163 27.854965
52.004272 28.16531 28.069
51.724136 28.016644 26.757828
52.231384 28.145416 26.781082
51.583252 27.934013 26.104538
51.386589 27.984003 27.673477
50.609596 27.690393 26.422913
50.214462 27.633726 27.307632
49.755753 27.401678 24.735519
50.672562 27.690674 26.092896
49.366516 27.315105 25.533127
49.22995 27.269133 24.508591
77.642693 56.415714 256.14822
48.567764 27.252699 23.821991
47.995842 26.951504 24.39502
49.63179 27.420324 26.376114
48.797607 27.178925 26.347107
48.325233 27.018454 25.799133
49.004478 27.223555 25.93985
51.372406 28.89255 22.721451
70.903427 62.14999 259.23929
51.76651 29.506905 21.119812
51.069855 29.443037 21.066238
50.402893 29.161566 21.829422
77.204277 56.800266 254.98926
77.182335 56.814137 254.34758
50.364319 29.250025 21.536911
51.572769 28.738493 22.978409
24.229019 34.289986 34.130569
50.278572 28.927677 22.262497
61.174767 40.717724 178.53929
60.97636 40.772583 179.02982
25.499039 42.577457 64.036346
50.111481 29.057375 21.951675
48.714272 27.740868 23.124023
66.035439 63.995533 159.40761
66.315811 63.852917 159.70462
56.142838 29.242569 14.070099
55.587074 29.324558 13.845398
55.485901 29.346388 14.719406
55.829742 29.291927 14.695786
60.437477 40.779755 178.73352
52.144234 29.863834 12.108948
66.962036 63.549229 161.82443
25.682022 60.063389 184.22049
85.984261 54.631927 32.519806
85.977982 54.630112 31.694458
50.295662 30.160786 9.3057098
53.581985 29.665058 15.771332
52.496582 29.831333 15.666428
42.42646 61.668171 61.841385
52.403435 29.839935 15.976318
24.948845 41.672737 66.266785
50.974869 30.084015 16.603256
71.76844 60.744236 153.73929
51.48378 29.950085 7.9521637
52.193588 29.84174 8.9284363
50.102592 30.219391 15.267151
51.630127 30.036366 17.882965
51.04512 30.109921 17.304657
25.585419 43.063877 66.293686
25.524673 42.921307 66.15155
49.961533 30.233364 17.289658
66.146042 63.958202 161.08893
76.654953 57.287971 252.28906
25.557152 43.081913 66.992752
94.162392 41.751293 266.1109
93.99791 41.901421 265.55261
49.622414 30.290344 17.13501
49.437134 30.322392 17.127914
29.840599 64.923798 189.02327
48.545166 30.50626 17.108429
77.074585 31.608601 47.240265
52.351448 29.801018 7.5826263
65.898537 64.066895 158.88925
55.212215 25.651852 -6.6155701
64.703812 64.638397 158.74942
64.697021 64.637604 159.07623
56.822319 29.087414 -4.7745972
57.280853 28.949097 -4.9884949
54.921757 27.196289 -7.1993408
55.179192 26.925789 -6.4477234
86.280563 54.426807 30.903259
100.99169 37.08094 181.89981
29.312469 49.323311 62.703522
29.368042 49.356922 62.225616
54.746117 28.481949 -7.2883911
28.638374 48.269062 62.703857
53.947891 24.859673 -7.315918
53.197723 25.512901 -7.3378296
52.020256 24.590084 -7.54245
30.890762 66.211929 192.33664
52.299706 25.414421 -6.5847473
51.884537 25.857689 -6.6182251
76.46196 57.43924 253.32544
50.613647 25.459366 -6.7339478
70.079948 62.847889 259.90619
28.851273 48.855785 65.012375
28.893005 49.104958 66.605865
65.334717 64.351944 160.56241
65.116829 64.44635 160.13687
65.303162 64.373077 160.70013
85.821571 54.732182 31.482498
52.281929 26.932671 -7.4214478
52.347893 26.971004 -7.4161987
52.626755 26.788551 -7.3959656
51.648849 26.641941 -7.4563904
64.514099 64.765121 160.98701
52.510201 28.406178 -7.4831543
52.515099 28.203255 -7.4701233
51.656433 27.922321 -6.4815369
50.418549 26.445469 -6.7998962
50.905594 26.963078 -6.7542725
51.366684 24.50391 -7.6102905
50.668098 23.882072 -7.7079468
50.734863 24.740948 -7.6309814
41.927193 61.483608 62.771317
49.818542 24.695 -6.7615662
49.87249 24.953465 -7.6629333
49.518951 24.454464 -7.7754517
100.10706 37.852139 180.21075
99.918312 38.009583 180.16052
28.86689 48.81712 64.357986
48.201782 23.924246 -7.8154297
48.192184 24.380945 -7.7687988
49.798462 27.05064 -7.5989685
49.917557 26.794071 -7.5738525
49.289291 25.688118 -6.9380188
28.237915 94.709427 353.6441
63.25576 65.302811 160.08521
29.881348 50.374069 64.264465
98.178253 25.845898 139.51068
70.72361 62.285557 258.38055
71.265709 61.8269 258.35364
70.859032 62.166836 258.09714
64.40007 64.771576 157.85828
37.213455 32.13485 6.0391083
47.179001 25.288351 -7.8510742
47.398544 26.685249 -7.8039246
53.662933 30.989281 -7.540802
54.599915 31.328255 -7.5124207
65.144218 64.422394 157.41049
52.130524 30.257195 -7.6076965
51.998154 29.536076 -7.5581055
53.347069 32.29583 -7.7008972
29.544739 49.700497 62.873779
29.121292 49.182323 64.031281
29.133575 49.144665 63.538361
51.393219 30.807526 -7.7188721
51.755722 31.79221 -7.7984619
51.454727 31.442528 -7.7848816
51.768433 32.293537 -7.8437805
52.493179 29.484932 -5.2903442
52.231201 28.470051 -6.0202026
43.139946 62.234783 65.566833
51.746429 29.898701 -4.981781
51.01799 28.206223 -6.4345398
51.315056 28.584099 -6.0547791
28.538467 47.98027 61.577255
28.13694 47.219906 60.500732
63.449646 65.163986 156.94904
63.411366 65.181808 157.0356
28.090637 47.28735 61.907928
41.989319 61.665806 65.182648
93.59024 42.259327 267.35342
49.9674 30.311016 -4.4373474
41.713676 61.443092 63.839539
92.874817 42.871151 266.32828
48.609779 27.93021 -7.7359924
48.118271 27.98399 -7.7972107
28.661179 48.235691 62.076263
75.638466 58.15023 253.4906
47.959541 28.047735 -6.9504395
46.792969 27.077091 -7.881134
63.275372 65.248505 158.11955
70.303436 62.701138 261.70117
68.483597 65.961319 364.83292
27.704643 46.727386 62.51059
112.17904 31.29401 82.873276
47.889816 29.192165 -7.8589172
24.562119 35.425465 33.964569
47.134827 29.091814 -6.77771
84.831917 55.369564 30.780151
71.624992 60.83268 154.11343
74.111954 59.108749 196.20093
75.187569 58.528019 254.28432
46.832283 29.547123 -7.9728394
41.210716 61.243252 64.654984
100.35658 38.256092 157.0274
27.990616 47.588509 66.0327
30.135124 65.447357 190.8996
29.929398 65.262222 190.72121
77.023651 56.95435 250.73331
63.422852 65.191483 158.65285
71.273178 61.046104 154.46399
71.36602 60.990646 154.47031
27.738647 47.424053 68.358383
88.707611 31.178986 146.26447
65.094315 63.571018 -0.054092407
64.571457 63.60323 -1.5860901
99.808533 24.905956 141.61015
69.529388 63.249973 257.89319
63.549782 63.815624 -0.68870544
63.175644 63.832432 -1.8166504
93.690338 42.333961 244.33453
28.159569 47.996189 67.022736
28.217957 48.19857 68.057236
75.963249 57.853252 250.40916
76.006607 57.822956 251.06638
63.412529 63.824093 0.77377319
62.934578 63.915096 0.55491638
29.146111 64.580383 190.34576
29.235611 64.559906 189.78412
65.404991 64.371918 163.45914
65.38781 64.373199 163.16107
65.103668 64.531372 163.82681
64.117264 64.991547 162.65843
94.373062 41.600132 263.25275
62.255974 63.990429 -1.8760834
62.222404 64.009125 1.4792328
64.538681 64.81189 163.87122
64.183281 64.984116 163.75212
61.966454 64.068878 -1.1992188
119.80499 12.982349 39.20517
27.461075 46.958424 68.512665
60.780926 64.275818 0.03276062
61.406765 64.168243 -0.33227539
60.68718 64.302521 -0.88331604
27.640457 47.326771 68.980972
65.163895 63.420116 5.4279938
73.912079 61.028332 46.686035
64.32383 63.615093 3.7288361
25.504539 43.779766 72.863449
64.233131 63.587353 5.2056732
63.367989 65.320679 162.66971
62.044144 63.986271 3.5157013
69.021362 63.665928 258.45578
64.076004 63.599438 6.3751984
62.92598 63.789364 6.239151
62.120461 63.94099 5.5445404
61.871674 63.997692 4.0281677
61.874756 63.952389 6.5425262
61.767311 64.007233 4.507019
61.505459 64.06073 4.1165619
59.832684 64.369247 4.9802094
93.517403 42.353569 261.95328
61.7309 64.067886 2.2750854
61.153099 64.179489 1.5221558
61.066479 64.167496 2.567276
108.52718 29.702705 214.38474
63.509567 65.292953 163.80774
58.997284 64.581879 1.6251068
58.958488 64.617081 0.44885254
26.645805 45.826443 71.133347
59.95528 64.373352 3.2875519
26.600426 46.246445 75.067123
26.542725 46.177059 75.328629
58.516983 64.62265 3.7233734
58.009735 64.763107 2.1003113
58.837486 64.593735 2.1736908
26.278503 45.54707 74.128067
57.313446 64.864151 2.4488831
64.484467 62.500546 -5.6311951
27.57515 44.917919 -6.0234375
63.910561 63.28587 -5.1908264
63.048531 62.872562 -5.6092834
63.327797 63.766018 -4.5340271
62.207809 63.20702 -5.537262
76.453506 57.458946 252.02803
62.233963 63.683056 -5.2107544
63.544861 65.304276 164.91693
63.705704 65.21846 164.48013
25.611084 43.966396 72.570007
30.449654 66.090622 193.58057
60.859131 62.525326 -6.0625305
61.385063 63.917805 -5.0704346
60.275093 63.873821 -5.4410095
99.213837 38.597118 180.15204
99.093414 25.326578 141.14314
64.771721 63.389217 12.270004
26.097855 45.161793 73.899323
25.441574 44.376225 78.873123
65.490417 63.254803 13.459686
26.66452 46.674168 77.721771
63.669472 63.567303 12.93924
69.448524 63.389767 261.91177
69.526199 63.325275 260.92709
63.297443 63.629429 13.709396
65.27816 63.328564 10.358231
64.670601 63.437084 9.920639
63.551849 63.612324 10.464645
26.825722 43.515171 14.535278
63.358173 63.645374 10.558624
63.48526 63.636654 9.219162
61.942352 63.922497 9.9105377
62.355682 63.832577 10.246506
62.659157 63.769817 9.944931
63.620708 63.598934 11.770782
62.371624 63.839581 11.559784
71.255051 61.061359 155.13181
62.671524 63.764156 10.619797
61.501907 64.010895 11.097183
31.755386 95.718628 367.2056
59.776531 64.295853 10.762985
29.694641 65.402191 192.69449
29.887352 65.414047 191.85237
25.47905 44.4268 78.642929
64.31398 63.426449 15.626617
70.484665 61.518105 155.54968
26.406845 46.3018 78.880341
62.680275 63.742832 14.568726
62.297691 63.811199 15.28569
62.210518 63.834927 14.880325
62.10154 63.850903 15.322952
63.218185 63.628017 18.02887
62.209438 48.642105 262.52023
62.805321 63.704403 17.041077
66.991203 63.804119 182.74652
62.032021 63.841412 16.73941
62.035069 63.858646 16.058746
61.379219 63.963726 17.466156
61.27417 63.992504 16.887344
74.312294 60.854286 48.101318
25.047699 42.963375 74.191299
60.962738 64.059433 16.205734
60.096878 64.215118 16.404007
60.146187 64.209167 12.310867
59.924953 64.259323 11.407196
59.824776 64.285278 10.887161
68.380554 64.21373 260.67206
58.784203 64.44223 11.307373
59.082733 64.389557 11.811859
58.554401 64.483047 11.582825
26.478935 38.845711 215.41136
26.843239 38.877018 214.88638
25.139938 43.196789 74.431946
66.975716 63.79253 181.89218
58.108383 64.562042 12.831848
58.026649 64.566803 14.390854
58.346474 64.509415 14.216553
12.043961 66.023529 279.7912
75.225067 58.493607 253.18028
71.672333 60.808102 151.72734
71.760941 60.753956 151.72543
67.720612 64.714478 259.67911
23.206902 33.410297 53.228195
24.927834 43.008347 76.265167
29.359474 64.964691 191.59845
49.559708 64.76413 75.241104
24.454025 41.814587 75.625992
24.47757 41.940834 76.072433
24.523666 41.87093 74.914276
24.475021 41.990738 76.40303
68.421333 64.175583 260.31296
101.76051 37.726055 133.22511
74.067749 59.143017 196.63745
83.524094 56.170399 30.66951
65.876923 64.504059 185.24536
66.614555 64.073456 185.35516
74.491066 59.12125 254.05618
55.972343 29.688416 36.099228
54.484634 29.334255 35.467499
54.357193 29.526581 37.89061
54.375969 29.487637 37.414719
54.026321 29.575005 39.200821
53.662148 29.395149 37.976883
52.19838 28.758492 34.739395
51.867752 28.499512 32.597656
51.509239 28.367441 32.128189
49.518417 27.969873 33.574951
51.646278 29.005041 38.723221
73.641754 61.125256 49.68663
73.996216 60.975903 49.846619
48.811707 28.036739 36.526047
48.24028 27.727165 34.76889
47.910423 27.720119 35.798691
65.247261 64.780853 182.32397
27.089294 44.393772 -5.4996033
50.967628 28.956892 39.936768
50.592514 28.806919 39.259628
101.33484 36.851036 178.09512
101.21753 36.99485 177.07208
49.277306 28.390013 38.819397
49.392654 28.544235 40.086533
49.759338 28.718494 40.832489
48.722511 28.31189 39.693161
49.483612 28.539309 39.707962
48.840172 28.183546 38.030548
49.088028 28.252159 37.968872
47.457275 27.837543 38.371597
46.734329 27.519754 37.006439
70.743614 61.356907 151.0564
70.959267 61.22953 151.15422
86.650642 54.165791 27.83403
64.450203 65.205414 182.06531
119.68888 13.067015 41.067337
119.85433 12.957527 40.737732
25.719048 44.753765 77.131531
68.184296 64.266922 255.742
73.839752 59.653076 250.89076
68.291168 64.235321 258.32385
74.294754 59.27533 250.09021
71.74865 63.188976 363.45105
93.373726 42.641747 242.70781
29.520584 65.435684 193.91296
27.283379 47.634628 76.384979
74.606941 59.013245 250.28059
27.624985 48.001896 74.715652
60.567825 49.176083 263.10599
64.48278 65.200882 183.18359
100.73877 37.343262 179.28267
44.52874 31.141537 11.015244
32.786095 64.308121 168.13751
59.762451 49.361858 262.79166
70.688934 61.387821 153.7377
67.09623 65.025055 252.69664
99.456787 25.135391 143.304
32.017548 63.698612 167.66762
27.501747 47.645168 73.668915
27.478508 47.587029 73.501511
63.909103 65.509338 183.43497
28.257202 48.879486 73.127594
69.067352 65.441635 366.15036
68.987869 65.509888 365.90363
28.204247 48.693073 72.21701
63.493988 65.700317 182.94025
28.822777 64.750549 192.92558
64.414444 65.187515 180.06052
28.469475 64.328461 192.18456
27.466072 47.277065 70.926849
64.098625 65.345795 179.61391
93.524292 42.485733 243.62224
93.456871 42.540596 243.70941
99.981506 38.056561 177.4483
69.710419 61.945316 152.17192
70.354836 61.573238 152.5863
73.613152 59.824581 248.742
27.119225 46.992142 73.578339
63.694321 65.575058 180.94681
29.578026 65.745407 195.69881
64.429726 65.204605 181.25339
63.132145 65.844788 180.79752
63.590508 65.577316 178.7287
27.064316 47.520054 79.067459
26.450867 39.075024 216.88446
120.35528 12.638811 42.997757
48.940102 64.640366 75.402542
15.356445 67.368546 268.60825
28.572258 49.435863 73.671387
23.109367 32.56871 52.74324
23.015457 32.117138 53.283905
120.35052 12.641344 42.197815
67.767197 64.467224 250.40157
23.293106 33.472542 51.689621
99.150459 25.30369 142.06973
67.645195 64.769913 259.46152
56.533306 29.163326 -4.6726685
56.557243 29.215263 -4.5363159
48.917473 64.58696 74.318832
94.126411 41.990074 240.58817
66.19043 65.871201 258.98648
70.361252 61.57893 150.59734
70.525681 61.488865 150.07605
67.135948 64.974609 251.4108
27.019577 47.584408 80.404861
66.87677 65.276688 255.63605
23.079224 32.775028 54.075043
26.657524 46.871414 79.791779
67.478745 64.837967 256.73807
22.977638 32.803913 56.046631
26.781929 47.255398 81.091385
67.311844 64.917404 255.14291
63.220364 65.926346 185.44345
65.836151 66.069855 255.61778
69.369438 62.268902 171.82956
67.795555 63.196857 171.93828
74.72493 58.918232 253.11494
21.526299 32.501377 92.187866
21.532288 32.501095 92.835663
66.443542 65.648315 257.3869
65.930679 66.039368 257.73511
99.698883 38.761776 158.37248
83.535126 56.191196 26.405945
65.657318 66.238495 257.34671
65.181015 66.591385 257.06726
93.881462 42.204796 240.65889
21.4953 34.303768 93.562271
65.461411 66.354721 255.83136
65.696869 66.178131 255.76704
67.613968 63.268688 170.6534
65.240913 66.493515 254.96637
64.86541 66.784424 255.37668
82.916718 56.498474 27.103271
65.193115 66.571609 256.52261
24.415283 35.351681 37.104706
63.985882 67.444427 255.86601
70.095879 61.726345 151.43161
74.187897 60.887459 51.702805
21.774261 36.411686 94.061432
21.833008 36.6702 93.840042
67.240257 63.487324 170.42648
28.820953 64.898865 193.88411
22.40831 38.295467 88.962769
22.199524 37.651745 89.574234
66.260269 64.048737 170.29929
64.985954 66.752625 258.04535
119.80467 13.003153 46.013351
22.754791 39.3508 88.622498
64.690575 66.972031 257.97961
23.512184 35.065964 53.398376
66.70578 63.827732 171.20297
22.536072 38.891678 90.870438
67.258072 63.506229 173.18939
120.0278 12.862368 49.47113
73.901886 59.610859 252.26282
23.099594 40.525524 90.043015
66.07634 64.151382 172.15758
65.914528 64.244888 172.04202
74.320984 60.803715 55.067856
100.35521 37.679195 179.22739
22.967133 40.18359 90.504791
47.059509 64.147705 74.756836
65.558136 66.168884 251.25711
141.69273 5.9606056 19.1147
23.206741 41.090942 92.624298
23.369354 41.444538 92.12439
64.366669 65.070557 173.33298
140.87466 8.6712503 18.582489
119.77065 13.028915 48.146454
65.069611 64.690201 172.77066
65.243393 66.430801 252.55255
70.079285 62.97028 268.5105
70.051498 62.991344 268.33734
138.6716 10.983126 17.778442
22.27243 38.694134 94.671326
64.111786 65.162766 171.95313
63.948582 67.437805 254.50906
23.770355 36.301502 53.913864
70.71769 62.425823 265.06799
23.599846 35.768414 54.560944
71.308014 61.917797 264.85309
63.860096 65.278397 171.00558
120.56774 12.49506 49.551819
70.613541 62.480152 264.24179
63.932781 65.288376 173.17159
22.724815 40.362423 96.730972
109.19811 36.810108 -2.27948
22.541328 39.807434 96.293991
108.39587 37.307205 -2.646698
101.32535 38.07687 133.2746
100.84266 38.558075 132.24512
22.653122 40.110115 96.161636
107.52572 41.664635 -2.2556763
47.662003 64.382126 76.246216
70.095329 62.952374 266.41339
119.70872 13.071684 48.715408
69.983643 63.033665 265.96207
64.112495 67.070496 247.07935
63.791817 67.309708 247.74806
64.719315 66.619934 245.90755
23.777504 32.543324 38.585541
23.830978 32.976292 38.571304
107.83856 43.583321 -2.2234497
22.724503 33.194401 62.711578
22.711189 32.876926 61.987
22.32962 38.772709 93.797699
68.673508 64.043259 264.22806
22.126709 38.059902 93.7789
22.156624 37.905151 92.174088
22.713089 33.22216 63.503326
68.100342 64.700653 274.59744
68.508034 64.363617 274.41321
68.590012 64.278702 273.31381
65.086212 64.729431 174.50732
8.7207794 81.947327 374.1391
64.061142 65.246017 174.18805
67.31414 65.285355 272.29486
22.933205 40.408272 92.980179
106.77688 36.336407 77.817093
64.204437 65.199661 175.22403
68.848488 63.942524 266.51877
22.525307 39.428516 94.155136
72.933189 61.408146 41.958679
63.857803 65.365875 174.97368
106.26662 36.399559 84.199951
106.43474 36.231907 85.056061
67.714371 64.887589 268.24573
67.810112 64.788467 267.08389
25.781395 45.797466 84.311447
101.57403 22.498821 -2.709259
102.44327 22.551661 -2.6723633
99.421005 25.225868 148.21602
102.6219 22.035982 -2.4589844
63.785378 65.393478 174.49185
67.000038 65.563141 273.77151
66.757416 65.756866 273.43985
102.38532 24.053368 -2.9013977
67.907265 64.645035 263.99792
67.357811 65.074371 263.76151
101.52874 24.039017 -2.9396973
101.21562 23.647152 -2.9338074
67.962929 64.619995 265.19376
25.590485 45.511101 85.106247
71.172127 62.084118 270.61102
66.457176 66.013641 274.06467
66.317535 66.116287 273.65631
70.490204 62.669437 270.67657
71.153 62.10928 270.95715
22.601616 33.024807 65.379684
22.545151 33.043644 66.401184
82.812622 56.602314 26.74794
82.77739 56.717175 26.029221
58.70343 38.106491 147.43312
58.598747 38.118813 147.65617
101.7243 37.105461 155.68153
101.43886 37.359257 155.0704
101.718 37.097195 156.12842
25.378265 45.516178 89.291946
107.78498 20.505587 81.113251
70.116615 62.986004 271.01144
22.466309 32.18541 66.435944
57.433594 37.946663 146.77182
100.74407 38.591152 133.20032
100.56157 38.740376 133.47417
24.372704 42.982334 85.361801
99.706436 25.085867 150.13484
82.7603 58.134872 -7.5803223
82.989311 58.069302 -7.3715515
104.85566 22.251621 79.635361
70.992195 62.217098 269.39984
104.97689 22.192404 78.827927
59.706085 38.518337 151.57739
59.254616 38.511967 151.65135
104.15859 22.669779 78.210648
24.09375 34.380398 39.007507
103.28559 23.168547 77.628799
24.477303 43.704021 89.328903
70.106094 62.971111 270.19467
24.434525 43.458145 88.079636
70.649483 62.560818 272.39413
102.68451 23.50399 77.716019
15.374718 83.155487 374.20212
66.542236 65.989929 275.48425
24.217567 43.067417 88.898804
72.00621 61.126396 250.60936
59.704453 38.645012 153.07309
24.004158 42.333286 86.941696
88.635834 31.246105 148.17476
100.97532 24.451015 76.689911
71.634888 61.431637 250.43828
71.82946 30.926975 31.382095
23.926559 42.083469 86.520157
71.559982 30.800014 29.483582
71.819481 61.291363 251.57422
99.493668 25.211666 149.70932
23.641548 41.591961 88.002869
65.09745 67.088654 273.72113
68.983551 63.847179 267.94583
69.993752 30.988834 32.474487
70.653336 31.056553 33.030685
104.21878 33.688114 205.83177
70.396439 30.906284 31.066193
55.51107 28.541916 -5.669281
46.758209 64.078278 75.281464
69.410187 30.81456 30.15535
24.211403 35.016041 40.161118
69.428513 63.532604 270.54907
68.979614 62.350155 153.98166
68.143097 62.802349 152.12582
119.19129 13.379837 38.320145
78.128151 55.963295 269.65961
77.490417 56.54401 267.98892
59.413399 38.701523 153.78848
68.920883 30.428036 25.920425
77.820358 56.236496 269.67975
68.466431 64.289413 268.57584
69.306732 30.803364 30.069504
24.009094 42.447502 87.768402
58.194351 38.448292 151.66893
22.894234 34.775402 64.495255
69.684982 31.041634 33.242279
70.154625 31.064602 33.294205
25.083755 44.732094 87.197708
69.36467 30.93338 32.092163
69.690079 30.980621 32.531952
25.95314 46.350338 86.355972
46.594337 64.020477 75.18808
25.540756 45.534122 86.153915
57.512825 38.477562 152.43845
-1.6638489 82.917267 371.70453
72.653915 31.714954 43.364502
71.8013 31.718693 42.871155
25.798683 46.270866 88.36586
77.094475 56.881294 269.98224
25.639664 45.945877 88.213181
59.148006 38.382687 150.2793
71.348618 31.849339 44.641129
58.720711 38.23835 148.99168
68.686157 64.175308 272.03918
23.083641 35.572834 63.288101
57.983089 38.162716 148.61935
25.127289 44.935616 87.980774
45.714188 30.980915 14.479187
65.611717 66.711319 274.22153
56.743183 38.051529 148.50945
57.550961 38.388119 151.46613
99.306091 38.588299 178.47606
99.596649 38.336895 178.43855
57.454491 38.263554 150.2133
27.362633 48.844158 86.261185
26.866653 48.090412 87.320358
68.432396 64.359451 271.35287
65.186356 67.093292 275.98422
24.033134 34.3615 40.586136
24.080666 34.645321 41.052307
29.445732 52.148525 88.34549
56.028667 38.262623 151.49077
46.449257 64.042633 76.467453
26.507935 38.866196 2.8702545
77.428581 56.581615 272.64456
56.160828 38.02494 148.82413
28.197113 50.244522 87.656189
28.481552 50.730049 88.031189
28.243408 50.410698 88.710541
80.433929 60.7435 4.3022919
79.690384 60.876148 5.340332
79.223755 60.968872 5.0974579
29.115219 51.672165 88.074326
78.161407 61.135944 5.7741394
101.35754 37.414989 155.46951
73.005234 61.400257 44.684128
75.86087 61.508511 7.7285309
76.336075 59.687206 63.585327
45.247749 63.595631 75.460403
141.56349 5.1158581 18.79245
70.201233 32.22308 49.716827
69.207703 32.137592 48.517258
69.619919 32.135593 48.442093
69.797272 32.152866 48.687271
71.033951 61.190876 157.72006
77.050491 56.929764 272.6412
141.327 4.4414434 17.772797
68.538452 64.197159 266.80865
24.857132 59.077427 184.43909
46.458817 63.901699 73.733276
77.402519 56.601669 271.87134
67.728943 64.88649 269.25534
76.616257 57.325172 270.54456
76.815826 57.13842 271.38644
76.674179 57.270958 271.64316
44.585907 31.140614 14.278015
141.3136 4.349268 16.940598
139.97345 2.976028 16.03569
64.145081 67.865158 274.70273
22.904938 34.573818 63.317535
66.894379 65.46814 264.77298
24.202919 35.331776 41.810989
67.357216 65.11348 265.81363
67.205116 65.254105 266.59128
116.35878 31.27562 1.897049
115.27729 32.20248 2.212265
66.424637 65.854294 265.56476
114.71705 32.697659 1.7910309
45.417221 63.529659 72.519653
65.509361 66.564575 265.47092
119.28522 13.322113 40.212082
27.272575 48.262867 82.395355
45.960541 63.666218 71.577957
112.05001 30.102272 -2.7076263
111.67836 29.833565 -2.743927
45.496437 63.514294 71.529388
57.957947 36.593418 130.30737
76.377686 57.539112 272.31927
63.684826 27.998093 -2.7698212
64.904854 27.783333 8.3447113
113.40224 33.834713 0.90391541
75.927559 57.950012 270.88431
63.963146 27.890799 8.9770966
119.61615 13.121269 42.37793
27.357887 48.814304 85.90062
67.296478 65.288589 271.60785
70.467407 61.536594 157.88074
70.241364 61.667522 157.04811
69.767914 61.929729 156.78287
77.571693 56.476219 275.88599
27.854797 49.377033 83.453781
27.705635 49.330765 85.313782
27.779587 49.384327 84.657089
43.501633 44.206631 -9.6403198
68.882042 62.433849 156.30206
68.864952 62.442638 156.16908
68.786087 62.485775 155.91757
77.254089 56.758026 275.02295
111.04914 33.144428 -2.7991333
110.68966 33.742416 -2.8090668
22.450211 32.958279 68.63353
22.445038 32.605389 67.866959
77.073105 56.932983 275.6886
76.531006 57.408463 275.16174
76.561043 57.38829 275.6445
55.670818 36.447433 132.10013
100.40723 38.897175 133.01126
112.14583 34.91375 -0.13671875
99.397591 25.122967 138.03999
66.306931 66.079727 271.0545
118.74487 13.676895 41.072937
109.79961 35.006943 -2.784256
110.55891 35.674706 -2.0881195
41.215317 58.710415 29.642471
109.64397 35.016533 -2.7985992
67.325317 65.16066 266.5914
23.465897 37.33353 64.635742
112.42747 31.494831 75.019638
66.351242 65.954407 267.47754
39.805626 57.593494 28.321594
111.45354 32.32674 75.618607
23.322388 36.921238 65.115662
110.78365 32.881336 76.210632
110.28122 33.334667 75.936829
110.66376 32.972034 76.499802
71.839073 61.823223 43.139099
66.629021 65.761444 268.25763
109.75578 33.785892 76.160156
112.58626 30.578869 89.378723
59.26416 49.024483 258.34821
55.498947 36.492229 132.79445
36.755447 54.453754 24.508148
110.77625 32.268063 87.527161
110.69701 32.343273 87.426407
27.367355 48.989799 88.390747
27.118622 48.571659 88.139816
68.430145 62.676144 156.83734
108.66038 19.979223 81.39505
38.071266 55.944763 26.151215
44.870781 63.240414 70.129532
56.317474 36.366566 130.00407
72.706154 60.144115 194.98297
70.500656 61.519379 158.85776
24.947891 59.022533 183.58002
58.368725 49.004192 256.29919
107.89365 26.49861 222.04089
70.935707 63.878452 365.03955
74.143669 26.458254 22.271713
73.422958 26.617956 22.269714
74.071289 26.496733 22.484955
65.225693 66.792358 266.1506
77.115486 56.892956 278.18155
100.45584 38.837788 133.37575
107.91464 26.895578 222.51855
56.326038 36.403671 130.44212
54.924385 36.183422 130.10037
64.951706 67.05632 267.92798
98.603867 25.592598 139.21504
71.049957 28.530497 23.869125
55.275749 36.107445 128.52264
55.714119 36.196903 128.89519
55.8274 36.179646 128.47162
72.08886 30.492596 26.016342
54.269501 36.020962 129.27692
54.099686 35.988735 129.18863
54.825092 36.071316 128.88409
55.029133 36.106586 128.96603
28.239449 50.541176 90.235718
55.280014 36.347065 131.50105
55.189827 36.350277 131.70236
27.744659 49.806778 90.588287
71.589432 30.664234 27.39212
70.580566 30.613911 26.978287
65.352219 66.788239 269.49731
26.332901 47.110973 86.839249
70.593475 30.442322 25.671707
26.684639 44.582027 -3.6703491
65.687782 66.519348 268.88998
25.978119 42.65958 57.273117
73.554451 31.851185 45.9814
60.858833 50.039974 271.19391
64.932671 67.121964 269.9093
73.116386 31.76392 44.398972
72.214645 31.926384 46.205902
14.081024 82.223755 374.14737
73.01487 61.394825 45.165909
64.496574 67.42485 268.84143
64.824463 67.199463 269.66074
64.211937 67.666809 270.06662
60.331909 50.064266 270.23383
60.252708 50.16457 270.78134
118.75806 13.686121 44.750458
73.797554 32.052479 49.2957
64.241737 67.639801 269.87415
74.605423 60.309395 372.72351
72.388741 61.633724 44.580811
23.971466 43.489605 97.11055
73.657776 32.30283 53.148392
25.071136 59.191708 183.65311
72.129272 62.70467 373.72168
72.323914 62.511379 374.35764
72.161438 62.66869 374.48764
25.641953 41.902512 57.06076
77.110085 56.900959 275.84641
58.803783 37.703827 142.85626
72.180267 32.292492 51.554123
72.123871 32.311268 51.789032
73.007797 32.253826 51.712082
25.454132 46.631557 97.679611
25.117706 46.080173 98.224136
73.617004 31.961224 47.916046
73.684616 31.980137 48.312057
73.504669 31.992886 48.316681
72.984314 53.835968 376.96283
73.35585 53.806553 376.53986
24.920128 45.780453 98.804565
72.449226 53.706226 376.82678
72.197189 32.089046 48.526077
59.355148 37.909473 144.78081
70.63829 54.298573 377.84644
60.392258 50.184902 271.18259
59.696724 50.386864 271.68326
71.488716 31.966122 46.421097
37.056213 32.188984 6.6937103
29.270271 95.015839 356.81744
24.416641 44.762867 99.130402
25.009987 46.043827 99.425217
24.609665 45.256008 99.757355
71.239647 62.124577 277.97406
98.054108 25.917137 139.34131
73.147339 31.401608 38.757843
72.580185 31.465889 39.451401
72.959908 31.480957 40.011566
28.660423 51.852695 97.310013
98.855324 39.009731 177.64706
28.509514 51.48061 95.886581
28.151154 51.018642 96.289871
119.52365 13.188654 46.575104
119.39649 13.272869 46.969727
28.065147 50.940666 96.741165
72.590973 31.174 35.391678
71.658836 31.195354 35.363739
71.035889 31.165588 34.70726
71.096252 31.155094 34.540817
71.467957 31.133102 34.303879
70.4198 31.171398 34.741837
27.982964 51.10899 100.40984
73.444832 61.212353 48.333298
71.346962 31.441921 38.743271
61.069092 39.292614 160.87555
68.46006 62.690845 158.80762
70.417404 31.38121 37.899979
26.253288 43.263592 57.316101
68.782593 62.515919 159.78296
70.979568 62.330776 277.07849
68.191147 62.814388 157.54984
70.526886 62.714054 276.75159
61.190109 39.393879 162.15262
27.398521 50.075504 98.721405
59.513969 49.978783 267.62073
69.96257 63.170231 276.16672
68.837494 65.443436 358.96368
29.290344 38.430462 206.61238
68.204071 62.826557 158.46758
75.06694 58.726475 276.63159
77.516792 56.506332 274.01425
76.864067 57.097477 273.96271
60.008972 39.094044 158.19174
72.928253 61.416203 47.969299
58.900829 50.201077 267.91913
58.857559 50.148502 267.42194
26.267517 47.778469 94.696884
28.88932 38.264061 206.45659
68.246468 62.759151 153.95261
25.76532 46.814842 94.252823
60.141068 38.995216 156.95581
75.876549 57.987122 274.64313
59.41256 39.052181 157.82751
59.081066 39.016804 157.5144
69.988876 63.135105 275.17017
58.73632 50.139145 267.09158
98.679016 39.157871 177.67497
59.132988 38.91922 156.33856
70.074356 63.116238 277.91055
59.148659 50.332108 269.61505
25.751328 36.652935 24.164658
119.61909 13.127962 47.585205
26.225731 47.897839 96.27005
69.06366 63.899052 274.58752
60.901859 39.193935 159.48373
25.999619 47.566868 96.678589
68.936249 64.014343 274.99179
60.342964 39.227982 159.84372
68.787796 64.154205 276.05048
25.725258 47.102295 97.343918
25.09816 41.190823 60.801651
59.831604 39.187805 159.44257
57.569534 50.583912 268.29233
67.689095 63.057476 153.04486
67.23819 63.285679 152.54478
69.109909 63.93346 278.16232
68.615547 64.359665 278.51041
83.344429 55.42926 69.455307
45.258797 63.503017 74.073929
45.275871 63.508511 73.868881
98.609886 25.628689 142.33119
81.980919 56.325684 68.880081
82.257721 56.122738 69.491928
-2.1368027 82.430511 371.14969
67.888283 64.900085 276.32013
67.917923 64.901871 277.3923
79.804749 57.697422 66.761917
55.575184 27.764938 -6.0838623
55.592323 27.599003 -6.1705322
82.477127 56.752914 27.65242
25.571533 46.646599 95.731491
25.64241 46.688061 95.043671
78.081909 58.718014 65.525726
77.651398 58.95723 64.936569
68.62542 64.042389 262.66675
28.91996 95.029617 356.37323
28.772629 95.046356 356.25745
85.660126 54.84536 33.312119
95.663971 28.405409 210.68701
85.793404 54.74638 34.495651
76.84391 59.396145 64.804535
76.744041 59.451088 64.690598
26.750488 44.492474 58.740067
69.719414 63.455692 282.26743
44.528503 63.313679 74.87558
67.927261 64.585327 261.76355
70.461166 62.817669 281.24088
26.523163 44.167645 59.841995
26.744858 44.598057 59.623672
36.060089 32.27589 5.7462311
108.43094 30.771671 175.8972
44.541428 63.257137 73.257828
107.59168 31.532406 174.45728
67.07019 65.27861 262.33087
70.878799 62.479954 283.92679
97.658432 26.184536 141.88165
97.299042 26.387383 141.31039
67.575287 64.894577 263.59543
106.17031 32.789146 173.86987
106.08467 32.83976 174.61639
66.568634 65.658371 261.70731
65.953697 66.196747 264.06042
66.148918 66.036026 263.73557
73.309677 61.260208 49.918839
25.850746 47.548344 99.366104
25.535316 47.078011 99.886459
68.060669 66.257736 361.18655
29.770279 51.481121 19.528015
107.37592 26.034458 223.125
26.271576 48.276474 99.501953
68.072563 64.832626 280.06964
36.521378 32.228348 6.0505066
36.630898 32.237232 6.5041809
67.965836 64.932709 281.07715
67.880829 65.003647 281.41626
66.217621 65.92926 261.42847
67.940552 66.329056 360.39362
28.19664 37.990086 206.27042
26.506493 48.951447 101.8409
74.051949 31.905136 -6.3330383
69.240372 63.888874 283.01886
69.028595 64.062485 282.73804
25.665047 47.446274 101.55931
25.527733 47.141788 101.10832
72.82312 30.576809 -6.2827759
69.298134 63.854923 283.75803
102.3736 23.625937 178.08502
102.62816 23.456778 177.85474
101.60464 24.129292 178.18103
74.23201 59.468967 273.56665
74.272133 59.413933 272.6557
108.03347 20.349108 83.613144
66.542839 65.728912 263.81888
66.676178 65.614792 263.41608
68.771805 64.292511 283.54733
107.73244 20.523754 83.887161
107.62358 20.587919 83.89325
106.82715 21.062029 83.877304
37.727119 32.247608 19.42308
37.720184 32.254696 18.708603
60.018742 39.408306 162.01282
26.89537 49.5826 101.8822
36.994492 32.340946 17.892517
36.471741 32.413712 17.185089
35.542114 32.581398 16.85524
36.105324 32.484531 16.685623
106.16342 21.456348 84.01973
68.72438 64.317261 282.54428
26.930328 49.539864 101.0778
72.505539 61.577915 49.209839
68.477692 64.523972 282.40146
58.501137 39.459126 162.71936
66.794464 63.599865 157.17046
66.507141 63.754406 157.74338
66.546013 63.734234 158.09232
32.872414 33.039364 14.68251
59.423187 39.602612 164.15833
103.30436 23.114597 87.140793
27.045929 49.931316 102.76433
26.867432 49.596054 102.35864
102.57364 23.519627 87.545105
65.736664 66.255524 260.06543
65.069923 66.78685 260.78403
65.091721 66.776291 260.93063
59.954155 39.624596 164.51897
68.987648 64.049088 279.31262
69.47934 63.637981 279.23907
43.009453 59.967258 31.924347
101.49563 24.129162 88.347153
26.639618 44.790112 -1.4918976
105.59663 21.433237 169.66942
41.27314 58.772083 30.068039
45.854385 61.566326 35.091507
45.571976 61.51968 35.988586
58.842873 39.749783 165.95181
44.171448 60.686337 33.786896
43.543945 60.297459 32.732544
42.700729 59.826279 32.638458
118.95196 13.576433 49.565414
65.534958 66.453293 261.3082
102.6272 23.380539 167.60864
98.424332 25.779789 145.35161
27.132904 58.030048 161.38486
101.17006 24.315006 167.29179
67.117386 65.531311 276.45834
28.544853 51.420094 17.689011
22.45092 36.286518 79.419235
71.979088 32.413013 53.186111
64.815666 66.964096 260.23883
72.833267 32.439205 54.478088
72.665497 32.456089 54.553375
73.25737 60.291588 272.13641
64.657249 67.130463 261.83868
66.924911 65.713898 277.44009
66.376534 66.130219 275.76312
66.036629 66.410675 275.88519
66.230103 66.255585 276.20508
77.578079 56.53561 189.58826
77.363884 56.69854 189.07773
77.295212 56.751263 189.15961
22.278206 36.570667 84.718079
22.139503 36.002262 84.919678
73.023178 60.506599 273.3208
73.47139 60.128307 273.57306
65.569885 66.802582 276.76688
58.688732 39.269123 160.59418
67.509117 65.308868 281.47687
67.563324 65.259552 280.60321
67.631989 65.217407 282.78378
67.166595 65.591232 281.98544
29.866028 53.57119 19.246292
74.859825 58.569546 191.54645
73.233948 59.762089 193.0183
65.559563 66.479202 263.09134
65.648102 66.397446 262.35349
25.44104 36.471806 27.860519
29.33725 53.681759 18.44194
73.498711 59.571476 192.98166
73.141571 61.324215 51.378036
29.238869 52.993774 18.456421
76.778625 56.884533 371.27161
85.273621 55.072067 34.516937
57.765163 39.214664 160.36533
96.477211 27.913443 213.00726
78.032623 56.07782 244.82764
77.761787 56.315609 245.03845
76.306335 55.86417 373.01599
76.317795 55.739517 372.83527
65.134369 67.277817 282.26572
77.232162 56.758202 244.403
58.125477 39.377956 161.90825
76.680626 57.222324 243.80411
21.904037 33.809544 82.086731
21.859497 33.355621 81.936966
73.315125 61.255451 51.043457
73.081497 61.348907 50.824966
67.355942 63.270649 155.46259
75.779137 57.980335 243.90518
57.402763 39.08527 159.03534
57.454727 39.09515 159.12585
75.543831 58.178486 242.92354
119.04646 13.51639 51.705627
73.427383 59.881275 237.61984
22.305923 36.038239 81.166458
22.276108 35.432774 79.399506
73.984314 59.437199 238.32423
98.028412 26.010147 144.90619
66.821327 65.865387 280.34943
22.172691 34.855595 79.758087
56.749084 39.186237 160.72079
97.48558 26.309721 143.47003
70.338707 40.897861 202.05154
66.216164 66.340317 279.06433
66.690231 65.933899 278.36472
66.756668 65.915054 280.14713
56.619469 39.095909 159.65784
57.317902 39.396763 162.55582
69.190201 41.338791 203.72482
64.028915 67.616837 262.54886
22.382507 36.257065 80.763718
70.735001 43.074627 233.58762
27.952705 37.67667 204.82861
27.961067 37.59676 204.28656
75.928986 59.031292 99.930344
98.850464 25.532139 145.89911
22.089661 35.43346 83.579559
25.241066 36.091618 28.379425
65.909882 66.562149 278.01135
55.441429 39.073986 160.59192
72.416977 61.610912 50.847488
75.150223 59.472343 100.10072
22.313637 36.527771 83.261414
11.833015 82.235123 374.13086
54.829239 39.091808 161.46352
55.19836 39.146385 161.7074
77.826828 56.637939 154.5589
78.505905 56.144848 154.22568
22.192894 36.160378 84.221405
77.288445 57.049625 154.08545
66.733368 63.583263 154.39035
66.211876 63.855808 155.09277
75.5914 58.253857 153.77194
73.191971 60.372719 275.43771
72.80497 60.697952 273.33719
72.338577 61.105499 273.09146
23.121109 38.385769 76.434296
74.148232 59.243069 151.86151
74.048706 59.310452 152.29987
74.981125 58.707348 152.22314
74.488991 59.022152 151.56412
40.923126 69.819427 187.26862
73.685669 59.540016 151.51329
27.310898 37.2784 203.62296
72.295776 61.152275 274.96365
54.867393 28.9758 -5.3938599
84.815811 55.377159 33.412979
40.354614 69.577316 186.26373
72.349472 35.145611 110.99464
22.71241 37.176861 78.056305
68.616791 35.700184 114.28285
39.48082 69.389084 186.56659
39.96814 69.556168 186.90758
68.318504 35.758553 114.97507
98.306793 39.411678 179.61572
68.362061 62.645435 148.73776
64.072388 67.659119 265.28012
64.041054 67.69635 265.81274
72.358597 36.765865 142.99341
72.362488 36.811596 143.84564
72.155823 36.835411 143.62048
70.985062 36.999081 142.67773
71.108307 36.902336 141.54221
98.920029 25.528591 148.15813
97.950928 39.745724 179.35564
70.748108 36.975075 141.71646
72.655334 61.51791 52.003799
22.983521 38.329342 79.158569
62.325497 46.21349 239.18291
64.746574 67.484573 278.50784
23.999619 41.075657 78.131744
67.380577 37.228554 138.84488
67.569412 37.191113 138.55435
23.947182 41.074772 79.193222
31.479416 51.393059 53.382492
72.110489 61.725651 52.426025
23.885849 40.842667 78.6297
63.375381 68.52771 277.73688
65.666534 66.81311 280.17957
27.788055 25.350891 66.505875
33.2397 28.487385 103.83299
33.162369 28.427265 103.30473
33.238953 28.436733 103.07632
32.29258 28.031145 102.30791
32.48819 28.100994 102.25381
31.369156 27.686274 102.01805
31.646103 27.737612 101.39088
11.340996 96.252655 372.23517
29.506012 27.062876 99.987595
29.546402 27.023045 99.221024
40.560493 59.25597 42.781113
65.154579 67.23793 280.89795
65.249802 67.180023 281.81284
38.765671 58.137768 44.335556
